# .PCD v0.7 - Point Cloud Data file format
VERSION 0.7
FIELDS x y z normal_x normal_y normal_z curvature
SIZE 4 4 4 4 4 4 4
TYPE F F F F F F F
COUNT 1 1 1 1 1 1 1
WIDTH 594
HEIGHT 1
VIEWPOINT 0 0 0 1 0 0 0
POINTS 594
DATA ascii
-0.17574982 -2.2069912 0.79848063 -0.015711566 0.97612661 0.21663302 0.18789446
-0.093999341 -0.49637461 0.43876505 0.047460906 0.99796265 -0.042638358 0.17238258
-0.089824326 -0.38018826 0.42014438 0.48153585 -0.29865587 -0.82397079 0.18459913
-0.11608058 -0.42515072 0.53130203 -0.022797965 0.97916996 0.20175841 0.1048088
-0.11993952 -0.42334038 0.54756612 -0.1841013 0.98286688 -0.0089044385 0.07420069
-0.25290769 -0.78970414 1.1116985 -0.0078267427 0.38718212 -0.92197007 0.033555172
-0.25300676 -0.76921034 1.1119387 -0.078840554 0.021456899 -0.9966563 0.022348091
-0.25301883 -0.74884641 1.1118129 -0.04623704 -0.037700232 -0.99821883 0.015008582
-0.25276464 -0.7280004 1.1105599 -0.075059831 0.056812007 -0.99555933 0.017400576
-0.2514385 -0.68501133 1.1045924 -0.12000223 -0.12124597 -0.98534209 0.029678255
-0.25648564 -0.66360974 1.1256994 0.28777763 0.87286967 -0.39405903 0.071011871
-0.25511009 1.2772708 1.1030666 -0.043382112 -0.97954786 -0.19647908 0.031492129
-0.25133556 1.2778804 1.0871376 0.13796908 -0.96506238 -0.22275364 0.055664998
-0.23547603 1.2846075 1.0201724 0.0051958924 -0.99988049 0.014561781 0.036803007
-0.21242495 1.2718558 0.92303693 0.09907981 -0.98356408 -0.15094641 0.039056167
-0.20617028 1.2757062 0.89661682 0.025153346 -0.99968135 -0.0021420843 0.026044186
-0.19096129 1.2720649 0.83248597 -0.077700272 -0.98384643 -0.1612729 0.039586704
-0.17880845 1.2763656 0.78117925 -0.047446627 -0.99615228 -0.073684409 0.028279452
-0.15688856 1.2849621 0.68863076 0.079362251 -0.98345798 0.16282487 0.059434284
-0.13955094 1.1514252 0.61664611 0.25984722 -0.96071565 0.09749312 0.10640548
-0.11089224 1.2727379 0.49469119 0.99676269 0.079938971 0.008591393 0.025734631
-0.099094309 1.1956823 0.44558716 -0.88139796 -0.47172034 0.024847217 0.187747
-0.032745261 1.1151053 0.16637778 -0.96785754 -0.08100149 -0.2380981 0.0018811183
-0.01509796 1.0973485 0.092082709 -0.98548228 -0.042834844 -0.164286 0.0022231841
-0.0078794695 0.18145975 0.069571748 0.61817569 0.20964882 -0.75756603 0.14543217
-0.0086736698 -0.13232476 0.081704602 0.32039765 0.49578866 -0.80717963 0.12335491
-0.02513263 -0.23573124 0.14886995 0.98636788 0.059919707 -0.15325767 0.0022568868
-0.062977217 -2.2653036 0.31818035 -0.8834101 0.18560009 -0.43027806 0.12774484
-0.065153137 -2.2458274 0.32678461 -0.32051343 0.79901606 -0.50876766 0.16142036
-0.082720563 -2.1725576 0.39694881 0.99544966 0.093789846 -0.016836466 0.13300709
-0.10739794 -2.2245843 0.49679649 -0.95831829 0.13730001 -0.25054887 0.13091116
-0.13554581 -0.4175266 0.5951919 -0.047943458 0.49136576 -0.86963278 0.14660202
-0.26325682 -0.73824829 1.1123537 0.005617179 0.027225455 -0.99961352 0.016656917
-0.26311842 -0.7050969 1.1115208 0.10380246 -0.041755524 -0.99372107 0.032755971
-0.23925692 1.2791705 0.99891901 -0.00068197359 -0.99474543 0.10237702 0.036149163
-0.20130855 1.276214 0.84606409 0.0011877638 -0.98276037 0.18488014 0.047115698
-0.070531577 1.1925653 0.31990775 0.54228342 -0.68291616 -0.48944271 0.21684521
-0.069707111 1.210977 0.31643343 -0.94930506 -0.30915037 -0.056972668 0.19489095
-0.02331911 0.16529787 0.13823475 -0.89479572 -0.32429901 -0.30687249 0.098558843
-0.02565065 -0.2185937 0.15395397 0.99965096 0.025687508 -0.0061659478 0.0012409382
-0.078154489 -2.1948242 0.36978346 0.80905306 0.565247 0.1610245 0.10426432
-0.10370523 -2.2312279 0.4675191 -0.93260723 0.35976887 0.02846171 0.13976358
-0.10876669 -2.2327917 0.48683545 -0.92716163 0.32752576 -0.18192893 0.078273036
-0.15989101 -2.2365243 0.68184912 -0.096191838 0.99530655 -0.010580807 0.058945894
-0.10598312 -0.48052225 0.46240133 0.11114638 -0.23661792 -0.96522456 0.18021326
-0.10280395 -0.40846679 0.44970804 0.092813611 -0.71052277 -0.69752634 0.11085884
-0.14072652 -0.38004267 0.5941177 0.038289256 0.40201098 -0.91483396 0.14337817
-0.23516847 1.2750479 0.94126058 -0.22859757 -0.97206831 -0.053163737 0.040618118
-0.22773735 1.2759109 0.91291213 -0.070031971 -0.99066496 -0.116955 0.027910795
-0.22250801 1.2783312 0.89294875 0.064053051 -0.99794644 -0.00024814796 0.027655033
-0.21894841 1.2791805 0.87936592 0.10811494 -0.99252111 -0.056683894 0.025392478
-0.20739551 1.2737169 0.83534718 -0.12249166 -0.97683972 -0.1754422 0.03535657
-0.2029416 1.2802932 0.81830835 -0.099913873 -0.9937579 -0.049622934 0.021279519
-0.19888304 1.2758328 0.80286455 0.12082026 -0.98544216 0.11960839 0.026774498
-0.191065 1.2825571 0.77299416 0.028656194 -0.99742597 -0.065728188 0.021274658
-0.18011089 1.2752894 0.73127317 0.054288402 -0.99811751 -0.028533794 0.022677105
-0.17729214 1.2799554 0.72048593 -0.067142628 -0.99769187 0.01013391 0.031593025
-0.14636208 1.1709648 0.60338056 -0.42242378 -0.88414407 -0.19961789 0.1070858
-0.1427751 1.1631144 0.58976203 -0.44350788 -0.89397949 0.064042874 0.14893609
-0.12054379 1.1664778 0.50494701 0.83569062 -0.54907304 0.011838008 0.13650082
-0.11308578 1.2754849 0.4756431 -0.99059004 -0.13623416 -0.013098839 0.023525966
-0.02531315 -0.35486066 0.15660831 -0.98724163 0.04197308 -0.15359789 0.0010178024
-0.13638692 -2.1190298 0.57160038 -0.60632628 0.67061055 -0.42737579 0.063821875
-0.14392352 -2.116884 0.59884399 -0.34145591 0.91552925 -0.21263598 0.028362382
-0.17883465 -2.222445 0.72590905 0.35097054 0.93521678 -0.046789393 0.11745874
-0.094844602 -0.42858115 0.40865535 -0.43120533 0.093677424 -0.89737755 0.17509681
-0.2888622 -0.79275751 1.1131459 0.0097396662 0.41543257 -0.90957183 0.037060652
-0.29001287 -0.75480402 1.117023 0.1515581 0.11246243 -0.98202968 0.035228159
-0.29052526 -0.74284494 1.1187866 0.14541654 -0.024953367 -0.98905587 0.029065622
-0.28729755 -0.66306591 1.1065134 0.02261183 0.5504601 -0.83455521 0.089332312
-0.31011352 1.273725 1.174502 0.10994428 -0.98414314 -0.13919277 0.013758543
-0.28276855 1.2754291 1.075583 0.050520744 -0.99863684 -0.01311705 0.021057269
-0.27395356 1.2752292 1.0437009 0.10936864 -0.98582757 0.12720995 0.032503404
-0.25536132 1.2777375 0.97643447 0.059912998 -0.99279368 0.10378405 0.025591597
-0.24529895 1.2784868 0.94003344 -0.076367244 -0.99241811 -0.096303068 0.042878352
-0.23935895 1.2787868 0.91854638 -0.07060764 -0.9950906 0.069349192 0.042441115
-0.22693346 1.2739055 0.8736403 0.016626133 -0.9991163 -0.038603805 0.038732383
-0.22224022 1.2810638 0.85661119 0.10480653 -0.99325907 0.04951781 0.019336415
-0.21778293 1.276214 0.84052563 0.01119375 -0.99929029 -0.03596621 0.026126936
-0.21285094 1.2811121 0.82265002 -0.022122085 -0.99076807 -0.13375045 0.013267411
-0.2042135 1.2712775 0.79148233 0.17218055 -0.98197532 0.077963486 0.024409382
-0.15733658 1.1683587 0.62270194 0.25162163 -0.89881486 0.35891283 0.10917691
-0.13993242 1.1599828 0.55981439 -0.67262864 -0.70918316 -0.21125811 0.1158925
-0.11785738 1.1777428 0.47983611 0.78595722 -0.5868715 -0.19455878 0.12976688
-0.10984641 1.267355 0.4501881 0.99600285 -0.077108026 0.045085199 0.036158781
-0.097818941 1.1769934 0.40736315 -0.89130068 -0.44707924 0.075519636 0.080392875
-0.07052432 1.199492 0.30847025 0.59439754 -0.77609998 -0.21061921 0.25114191
-0.01149766 -0.15089007 0.10897039 0.77970916 0.62085801 -0.081172861 0.10201306
-0.026884111 -0.19118245 0.16283914 0.98438913 0.11378819 -0.1342774 0.0033149945
-0.024343239 -0.24972816 0.15441585 0.9978348 0.046682589 0.046330161 0.0028014677
-0.02529458 -0.3410221 0.15838996 -0.98649377 0.062313229 -0.15148306 0.0023973999
-0.11016514 -2.2550595 0.46778414 -0.9899022 0.13050541 -0.055333924 0.10616846
-0.13744792 -2.1236033 0.56183243 -0.76591486 0.49153209 -0.4144522 0.056370907
-0.17321584 -2.2334006 0.68717456 0.30615559 0.95082223 0.046966176 0.067679599
-0.17847802 -2.2270312 0.70545173 0.010729317 0.93893492 -0.3439275 0.13461052
-0.125211 -0.40732697 0.506787 0.1385304 0.93212688 0.33458751 0.10422653
-0.15143228 -0.38380691 0.59792107 -0.034504488 0.88313299 -0.46785206 0.14358671
-0.29577529 -0.80091137 1.1035566 0.085627243 0.89187074 -0.44411102 0.093231767
-0.29846025 -0.78801566 1.1128124 0.083726615 0.32472172 -0.94209635 0.035722237
-0.29840687 -0.76016396 1.1124249 0.13188779 0.08741162 -0.98740309 0.028754774
-0.29809436 -0.74571157 1.111232 0.1910677 0.026230326 -0.98122627 0.034112111
-0.31804115 1.2780876 1.1660244 0.092442863 -0.99439383 -0.051335048 0.0211985
-0.2885952 1.2736071 1.063524 0.10581177 -0.99262613 -0.059135657 0.028944686
-0.27489257 1.2722844 1.01582 0.034071106 -0.99938643 0.0081205554 0.022837818
-0.26740819 1.2791705 0.98970878 0.11594919 -0.99168855 -0.055764202 0.017363448
-0.25759634 1.2718498 0.95559627 0.048592765 -0.99873465 -0.012955419 0.028989773
-0.19589022 1.2778655 0.74068725 0.001147322 -0.9996348 0.026998764 0.033804435
-0.19062382 1.2794796 0.72233754 -0.010173868 -0.996382 -0.084376492 0.047386441
-0.15372969 1.1717879 0.59464961 0.047395874 -0.95170331 -0.30333883 0.18214624
-0.15117723 1.1781017 0.58571595 -0.73262239 -0.65503895 -0.18490086 0.14210765
-0.1429044 1.1730264 0.55694616 -0.77839875 -0.62569767 -0.050967846 0.057367112
-0.13551441 1.1580627 0.53132206 0.40586802 -0.90500933 -0.12739371 0.11684941
-0.11816856 1.1889284 0.47069886 0.83247006 -0.53772777 -0.1335758 0.11026871
-0.10031842 1.1897974 0.408537 -0.80308867 -0.52316451 -0.28521475 0.16779438
-0.074699447 1.1632007 0.31952247 0.99105573 -0.036587089 -0.12833567 0.16520192
-0.028279729 0.12950335 0.16537522 0.95504147 -0.26919898 -0.12420851 0.019494098
-0.0050340099 0.20682934 0.083871588 0.81880903 -0.53652793 -0.20418009 0.1590049
-0.02502217 -0.23848148 0.15867804 0.99977601 0.015752416 0.014134954 0.0024854303
-0.07773453 -2.1991715 0.34889269 0.83374751 0.55201828 0.011869668 0.15106846
-0.14703952 -2.134099 0.58051002 -0.44014692 0.73583651 -0.51460218 0.10527119
-0.19267757 -2.1885858 0.73371279 -0.83298516 0.54164034 -0.11296637 0.13612173
-0.21336018 -2.1910565 0.8029871 -0.078400649 0.98709065 -0.13966164 0.20238134
-0.15488617 -0.42084435 0.59481049 -0.2111951 0.15784326 -0.96461505 0.1484722
-0.30797237 -0.781349 1.109949 0.15670364 0.12342969 -0.97990257 0.040989637
-0.30818897 -0.74098927 1.1103922 0.17645134 0.011206136 -0.98424554 0.031112263
-0.30709955 -0.7313391 1.1066768 0.074989341 -0.057261609 -0.99553895 0.027341677
-0.30557194 1.2780827 1.087517 -0.085297376 -0.99453634 0.060181387 0.026070112
-0.29588938 1.27748 1.0550985 0.10111449 -0.99303037 -0.060551863 0.038743038
-0.24885069 1.2755924 0.8975997 0.10268056 -0.99457204 0.01682605 0.029734854
-0.24365565 1.2822825 0.88015699 0.058092516 -0.99701506 0.050855465 0.044499971
-0.23613602 1.2736994 0.85503709 -0.0068405424 -0.99995542 -0.0065094689 0.034617577
-0.22712427 1.2809979 0.82480955 0.17972383 -0.9820224 -0.057717688 0.015101904
-0.20513551 1.2775468 0.75120294 -0.13813151 -0.99020898 0.020144211 0.031576309
-0.18779317 1.2737643 0.69315755 0.035321616 -0.99758041 0.05988121 0.052328881
-0.15496746 1.2119294 0.58367068 -0.98180002 -0.16728874 -0.089907117 0.050544556
-0.1323106 1.1550766 0.50820011 -0.33606318 -0.9418354 -0.0027489837 0.12241161
-0.085006863 1.1746398 0.34966382 -0.40420905 -0.89244759 -0.2003804 0.22888233
-0.033585601 0.94653523 0.17907076 -0.96307522 -0.017515041 -0.26866215 0.00020029041
-0.02909166 -0.14669839 0.17337826 0.96408606 -0.25586903 -0.071198121 0.095153414
-0.03100948 -0.40104023 0.18119581 -0.97407919 0.046083987 -0.22146338 0.0023283749
-0.066022187 -2.2817485 0.30544701 0.97699517 0.13132103 0.1680336 0.10452941
-0.099400312 -2.1877229 0.41128254 -0.89743614 0.43410873 -0.078472197 0.15689924
-0.1326142 -2.1508713 0.51697648 0.98692322 0.079269044 -0.14035246 0.087717965
-0.13823116 -2.14797 0.53487313 0.97704697 0.088970348 -0.19355465 0.085688122
-0.15404481 -2.1744397 0.58548993 0.087946512 0.078317165 -0.99304169 0.10352673
-0.15978861 -2.1200106 0.60344666 0.22684926 0.96307093 0.14503019 0.15633239
-0.21281242 -2.2009115 0.77311438 -0.044218607 0.99901754 -0.0029350063 0.2328836
-0.22095338 -2.1872075 0.79898947 -0.052423935 0.98993564 0.13145076 0.20160748
-0.14810084 -0.41784412 0.55478728 0.91169167 0.39501703 0.11304788 0.22101903
-0.1611163 -0.41019058 0.59625071 -0.58281523 0.29472542 -0.75727355 0.09188094
-0.1588589 -0.38524446 0.58888358 0.16132757 0.33985743 -0.92653674 0.19605213
-0.32071239 -0.76931596 1.1077055 0.03214692 -0.023059497 -0.99921715 0.014208661
-0.32139373 -0.75068712 1.1097541 0.047319621 0.10086453 -0.99377429 0.012385554
-0.32258213 -0.66937524 1.113001 0.18459074 0.65422243 -0.73342985 0.071980424
-0.32629335 -0.66562688 1.1248134 0.13474785 0.9172436 -0.37484282 0.04962033
-0.33177423 1.2735076 1.1293316 -0.090741143 -0.99581981 -0.010437937 0.014901298
-0.31716961 1.2772708 1.082723 -0.059707969 -0.99393153 0.092386059 0.022354476
-0.31140339 1.2737951 1.0643541 -0.09405487 -0.99536777 0.019914413 0.026415216
-0.29469621 1.2756218 1.0110521 -0.086020142 -0.99567777 -0.035018019 0.031601444
-0.28939819 1.2728606 0.99417168 0.13156752 -0.98655444 -0.096955135 0.02637974
-0.27916008 1.2803526 0.96146584 -0.123835 -0.99229807 0.0030623937 0.027231475
-0.25354758 1.2748313 0.87980801 -0.030410688 -0.99929023 -0.022234561 0.09061747
-0.24921347 1.2747847 0.86598414 -0.091517881 -0.99071461 -0.10054347 0.092731267
-0.21080081 1.2809274 0.74342054 -0.18578261 -0.97416335 0.12841547 0.038943186
-0.17195255 1.1617864 0.62030512 0.35312995 -0.90989953 0.21767403 0.032209363
-0.16658123 1.1598288 0.60318565 0.29586881 -0.95517653 0.0099802185 0.062951885
-0.16203904 1.1651677 0.58866203 0.65828443 -0.65710729 -0.36724865 0.090229392
-0.11660407 1.2506791 0.44316924 0.99784201 0.049200941 0.043482296 0.05524404
-0.067932308 1.2320515 0.28804839 0.96480131 -0.15920146 -0.20931636 0.15712185
0.00742957 0.17893726 0.054711729 -0.92891628 -0.10514544 -0.35504767 0.021058882
-0.083220467 -2.1735766 0.35445666 -0.88785654 0.42182794 -0.18377148 0.15782218
-0.15207399 -2.182729 0.56668335 -0.098776802 0.6190505 -0.77911466 0.16562496
-0.16652828 -2.1191661 0.61081141 0.44159034 0.69810355 0.56360388 0.12138321
-0.19338611 -2.2046244 0.69412571 -0.01457783 0.97365212 -0.22757214 0.15791737
-0.12373045 -0.4253659 0.46795839 -0.10310228 0.30405512 -0.94705892 0.080828086
-0.12491205 -0.40730622 0.47148234 0.42965236 0.89603144 0.11192194 0.12025144
-0.33159879 -0.73396975 1.1104898 0.0033323427 0.16896139 -0.98561704 0.0085200453
-0.33309114 -0.72444767 1.1150266 0.095491 0.15152249 -0.98383051 0.017519046
-0.33251798 -0.69705242 1.113083 0.11158514 -0.14646433 -0.98290235 0.039505143
-0.33571294 -0.66029584 1.1226898 0.2246013 0.92536521 -0.30537429 0.033550024
-0.27271143 1.2816081 0.91597307 0.14908652 -0.9888227 -0.0017058153 0.034275807
-0.25021341 1.281949 0.84664476 -0.28721893 -0.95487159 -0.07566765 0.032122057
-0.24733828 1.2777759 0.83781224 -0.2747288 -0.96113765 0.027174825 0.031303737
-0.24447821 1.2735462 0.82902658 -0.20093459 -0.97766519 0.061611556 0.043481901
-0.21317658 1.2751132 0.7325626 -0.13972013 -0.97170722 0.1904293 0.055364948
-0.20802346 1.2822469 0.71663737 0.21846172 -0.97263688 0.079069667 0.07110469
-0.12666343 1.1663052 0.46668333 0.064712003 -0.99342602 -0.094430476 0.14486916
-0.069162577 1.1867893 0.28936565 0.21078031 -0.9328202 -0.29226348 0.17433903
-0.023558671 -0.295921 0.16008329 0.9923504 -0.0092023015 0.12310967 0.0029476157
-0.027970741 -0.3512488 0.1735684 -0.98441195 0.00065956236 -0.17587696 0.0012415153
-0.18417874 -2.1867955 0.65022945 0.073849976 0.63205481 0.77139676 0.15599516
-0.26683623 -2.1644917 0.89621305 0.20602702 0.96346194 0.17115466 0.078972079
-0.11210456 -0.44522992 0.42467839 0.51729453 -0.2877771 -0.80597186 0.15465847
-0.12054382 -0.47637478 0.45000309 -0.28518018 0.94673657 -0.14953959 0.14934519
-0.11218607 -0.37770361 0.42449689 -0.88080627 0.46198553 -0.10368031 0.13956223
-0.13439107 -0.40784267 0.49080452 -0.050808489 0.99534267 0.081922419 0.14246564
-0.34041533 -0.79508024 1.1067017 -0.096549399 0.23714404 -0.96666485 0.041122094
-0.34241137 -0.66107172 1.1118034 0.17157029 0.69430649 -0.69892931 0.052653346
-0.34442359 1.2730786 1.1056445 0.057456437 -0.99434537 -0.089308284 0.025382956
-0.33201036 1.2780063 1.0686514 0.0026950352 -0.99990273 -0.013683132 0.020149583
-0.31592253 1.2765112 1.0207572 -0.094934493 -0.99229282 -0.079639532 0.042660344
-0.29407459 1.2803526 0.95567799 0.041885532 -0.99895221 -0.018439623 0.037267648
-0.28802216 1.2743775 0.9376936 0.0069842003 -0.98050761 0.19635698 0.032610543
-0.28267869 1.2716087 0.92180014 0.18349059 -0.9830215 -8.5301202e-05 0.042298768
-0.27817822 1.2729661 0.90839088 0.10818537 -0.99247074 -0.057426643 0.034449384
-0.27384773 1.2750423 0.89548314 -0.0073751886 -0.99820256 -0.05947474 0.035051778
-0.26999447 1.2795967 0.88398099 -0.078537486 -0.98924154 -0.12342221 0.052356511
-0.24307211 1.2676833 0.80389094 -0.05781804 -0.99073976 -0.12284859 0.05824912
-0.23438299 1.2820493 0.77792764 -0.14084662 -0.97663295 -0.16232771 0.068289302
-0.22974537 1.2799995 0.76413143 0.17955643 -0.98336059 0.027594361 0.066757888
-0.17021164 1.1558557 0.58764172 0.20892943 -0.97376961 0.090117671 0.079221807
-0.16312417 1.2652255 0.56585073 0.99860317 0.046038456 0.025926707 0.010192677
-0.11500756 1.2695764 0.4225499 -0.9494226 -0.30755934 -0.063275844 0.028230667
-0.13972409 -2.1591871 0.50445449 -0.90362126 0.42833143 -0.00095344143 0.084162988
-0.17444447 -2.0995531 0.60306484 0.51705527 0.82224911 0.23782372 0.15358904
-0.20503014 -2.2114439 0.69092536 -0.06430833 0.99599397 -0.062131763 0.07616628
-0.22115433 -2.1614625 0.7365855 0.35820019 0.86428481 -0.35313505 0.13708717
-0.26516339 -2.1614308 0.86203337 0.21449555 0.97580546 0.042371303 0.083030321
-0.12408742 -0.46423498 0.44964188 -0.39438048 0.91330868 -0.1016427 0.18895425
-0.11935687 -0.40804067 0.4358179 0.86292201 -0.40172502 -0.30656603 0.15588485
-0.1457468 -0.41268232 0.51107055 0.26660711 0.96378273 0.0065959948 0.16819324
-0.17442365 -0.38793388 0.59266448 0.074232824 0.39928451 -0.91381693 0.188436
-0.34557581 1.2756467 1.0704838 0.13816383 -0.98968202 -0.037951279 0.0095985485
-0.33794126 1.2785244 1.0487041 -0.022819957 -0.99956816 -0.018513331 0.012519112
-0.3258768 1.2731934 1.0143465 -0.10836177 -0.98505491 -0.13388264 0.032265447
-0.30609873 1.2785858 0.95793647 0.10953449 -0.9779408 -0.17785954 0.042394686
-0.26940486 1.2804312 0.85332924 0.11677031 -0.98790425 -0.10202904 0.042067207
-0.26077068 1.2851076 0.82868928 -0.18191245 -0.98011565 0.079253271 0.04668168
-0.23617449 1.2745488 0.75864148 0.19981809 -0.97969073 0.016699744 0.072129861
-0.22983246 1.2766329 0.74055088 0.091228873 -0.99488187 0.043443147 0.089049749
-0.21616854 1.272562 0.70162642 -0.1328046 -0.98591161 -0.10169236 0.053169604
-0.18661648 1.157078 0.61808586 -0.20973615 -0.96967375 0.12547342 0.080269165
-0.100859 1.1978256 0.37338763 -0.94083452 -0.33883944 0.0042727417 0.14452818
-0.0242204 0.14547697 0.16128686 0.97847706 -0.19157495 -0.076692134 0.077521324
0.02005109 0.20662375 0.03472136 0.82197785 -0.17188707 0.54296166 0.05188087
-0.024256309 -0.27362055 0.16531511 -0.99191219 0.023013016 -0.12482236 0.0036334055
-0.094420671 -2.179132 0.36987865 -0.90161508 0.4112643 -0.13398428 0.077146351
-0.11651962 -2.2514205 0.43121243 0.83855772 0.49766648 0.22169586 0.063385829
-0.21347739 -2.2111347 0.69821471 0.13885309 0.94430518 -0.29834151 0.17826946
-0.1316656 -0.45324254 0.46241373 -0.67569184 0.11687259 -0.72786075 0.045015883
-0.13544334 -0.44049746 0.47275138 -0.404883 0.070096016 -0.91167778 0.089314424
-0.15302038 -0.4207989 0.52108234 0.60944545 0.78837484 -0.083913162 0.21629065
-0.16053513 -0.41030183 0.54173321 0.37891549 0.86633635 -0.32539868 0.17018682
-0.28281003 1.2765813 0.86885965 0.22025938 -0.97078258 0.095220864 0.02052575
-0.2582674 1.2748452 0.80122459 0.074855879 -0.98871154 -0.12979232 0.090602241
-0.1786584 1.1530224 0.58251774 -0.23537277 -0.96962559 -0.066527776 0.058698948
-0.16215774 1.2543334 0.53644401 0.99634612 0.085226789 0.0055518495 0.022462951
-0.1405628 1.1665041 0.47743827 -0.52258146 -0.85252118 -0.01078127 0.081831492
-0.12518539 1.1563466 0.43511406 0.47753993 -0.8625651 0.16714375 0.077449352
-0.11411653 1.2714739 0.4039306 0.99704248 0.074617378 -0.018395873 0.030574165
-0.1080835 -2.2294536 0.39990661 -0.86166382 0.50232732 -0.072131507 0.19033657
-0.13926591 -2.1509523 0.4820174 -0.93984282 0.3359794 -0.061752632 0.087575242
-0.22547457 -2.1938667 0.71049678 -0.35243472 0.77021188 -0.53156704 0.14709516
-0.25808465 -2.1577301 0.79662716 -0.25106442 0.96080679 0.11754528 0.065583758
-0.2736496 -2.1674013 0.83788985 0.1632755 0.97482085 -0.15187314 0.064927436
-0.14668624 -0.47110939 0.49215463 -0.94034678 0.022430202 -0.33947724 0.050670117
-0.13820246 -0.41762921 0.46939114 -0.088997953 0.90862209 -0.4080261 0.18889175
-0.19314247 -0.38988817 0.61468732 -0.15581235 0.92383409 0.34964693 0.092538789
-0.19400926 -0.38863769 0.61697507 -0.11011188 0.89500159 0.43225864 0.054667737
-0.19487518 -0.38737324 0.61926037 0.07008563 -0.8517943 -0.51916713 0.032773942
-0.3460407 1.2789997 1.0100377 -0.04278066 -0.99866873 -0.028817913 0.025610104
-0.32860219 1.2766391 0.96388274 -0.12408399 -0.96398294 -0.23524491 0.028082682
-0.3206321 1.2778003 0.94277549 -0.077447236 -0.99694425 0.010200655 0.029581357
-0.305868 1.2714442 0.9037236 -0.11297786 -0.9866159 -0.11758008 0.01710902
-0.28335652 1.2751436 0.84410381 0.19080132 -0.97033548 -0.14847192 0.03047982
-0.26130772 1.276737 0.78572083 0.22651649 -0.97212094 -0.06059112 0.065806016
-0.25568318 1.2721806 0.77085572 0.085242964 -0.99067914 0.10624669 0.041950338
-0.22335444 1.2752491 0.68524837 -0.12783121 -0.95367092 0.2723437 0.073181823
-0.17828581 1.1600792 0.56658149 0.011491225 -0.99757326 0.068669252 0.13068543
-0.11693932 1.2458956 0.40368152 0.99063247 -0.013501897 -0.13588606 0.060879793
-0.097897403 1.1792445 0.35364547 -0.83832866 -0.54051268 0.071070872 0.18061574
-0.080263272 1.1497605 0.30712622 -0.25377363 -0.82322359 0.50784034 0.17332046
0.00039638 0.23499934 0.098758243 -0.42676881 -0.87378573 -0.23316704 0.096231803
0.026791699 0.19789022 0.029086979 -0.82331449 0.0095436927 -0.56750512 0.024384033
0.02850721 -0.2309799 0.03244549 -0.077545241 0.21104626 0.97439533 0.14617084
-0.070959657 -2.2327969 0.29871941 -0.89572126 0.1686303 -0.41139677 0.15807758
-0.077686682 -2.2118752 0.31586674 0.9563514 0.14586332 -0.25321129 0.1300948
-0.084181324 -2.1858134 0.33238941 0.46802965 0.84735465 -0.25087515 0.165833
-0.11388656 -2.2404749 0.4089188 0.18199842 0.9827233 -0.033637084 0.10119568
-0.13903947 -2.1621296 0.47303352 0.99784142 0.065669283 -0.00035230696 0.12556621
-0.1906215 -2.0957444 0.60503536 -0.5627237 0.81841552 0.11635333 0.089851201
-0.21016511 -2.2140512 0.65583903 -0.0028202678 0.8062675 0.59154439 0.12003943
-0.22410323 -2.2043219 0.69155276 -0.19357085 0.95824981 -0.21044615 0.13111441
-0.24279155 -2.2059889 0.73951912 -0.98547798 0.16840006 -0.021781983 0.095196679
-0.25684398 -2.1593022 0.77532262 -0.11353201 0.96123719 0.25126389 0.066380233
-0.13670585 -0.4784978 0.4577713 -0.54341882 0.8152464 -0.20017311 0.18828051
-0.15384711 -0.41013607 0.50138187 0.8039431 0.54719323 -0.23292702 0.11276522
-0.17764407 -0.41074136 0.56245196 0.19123405 0.97444093 -0.11787441 0.06259951
-0.38083175 1.2764722 1.0745696 0.030699812 -0.99942201 -0.014599013 0.019451149
-0.36237949 1.275836 1.0272217 0.1000373 -0.99290794 -0.064236917 0.021844909
-0.33915094 1.2764494 0.9676103 0.076723985 -0.98688382 -0.14203382 0.037032023
-0.31962934 1.2768764 0.91751254 -0.075025171 -0.99705428 0.015939556 0.02888212
-0.30950794 1.2805196 0.89151931 -0.070294194 -0.99293095 -0.095638812 0.030394843
-0.30292958 1.2747216 0.87467021 -0.098509036 -0.98865372 0.11340048 0.022995133
-0.2974728 1.2739563 0.86067146 -0.082530059 -0.99622661 -0.026858618 0.032835443
-0.28445107 1.2739812 0.82725549 0.1542515 -0.9792968 0.13108875 0.06081862
-0.27907452 1.2726567 0.81346583 -0.044683427 -0.99899751 -0.0027018238 0.047045976
-0.25176421 1.2878264 0.74329972 0.11847918 -0.99257857 0.027395248 0.055238303
-0.24532181 1.2781804 0.72682065 -0.11190825 -0.99274766 0.043916099 0.056817129
-0.23649956 1.2831695 0.70415395 -0.011711589 -0.99140328 -0.13031621 0.049161024
-0.16702597 1.1719272 0.52648664 0.83366328 -0.53852803 0.12244631 0.07132183
-0.13700339 1.1686496 0.44946203 -0.66908467 -0.7381072 0.086738087 0.17560382
-0.13322242 1.1699276 0.43975243 -0.27656347 -0.95051777 0.14152278 0.15836784
-0.072426014 1.1648486 0.28376734 -0.7949245 -0.46511084 -0.38957286 0.17503156
-0.071632519 -2.2228065 0.29755378 -0.90683514 0.021200048 -0.42095202 0.13900198
-0.095966637 -2.1818604 0.35789871 -0.86868471 0.45496064 -0.19595315 0.055298146
-0.16333182 -2.2285013 0.52581239 0.96105748 0.18075958 0.20903245 0.12211353
-0.18787748 -2.1003809 0.58621609 -0.36030665 0.8279615 -0.42971942 0.085787922
-0.20958664 -2.1965754 0.64076346 -0.15454319 0.53229398 0.8323338 0.08006876
-0.22175607 -2.2078071 0.67111194 -0.012764163 0.99499142 -0.099141814 0.13231537
-0.24533992 -2.216217 0.72985423 0.83036524 0.52831364 -0.17713934 0.12167152
-0.14684138 -0.42338839 0.47508621 0.053190913 0.60741329 -0.79260319 0.13508789
-0.19342785 -0.41941634 0.59101272 0.11605731 0.84966981 0.51438493 0.14205177
-0.39248571 1.2747953 1.0773541 0.051376842 -0.99648058 -0.066232339 0.019044958
-0.37981197 1.2747483 1.0458109 0.049122233 -0.99878377 -0.0042457581 0.027135255
-0.35272729 1.275941 0.97839421 0.12901296 -0.98353606 0.12654035 0.034147047
-0.34160054 1.2784777 0.95068753 0.12589566 -0.98413461 -0.12501766 0.028196178
-0.33645499 1.2812034 0.93786621 0.027650598 -0.99927539 0.026158344 0.022615453
-0.33092478 1.2820749 0.92409754 -0.035696294 -0.99873072 0.035537068 0.031852398
-0.32180318 1.2792021 0.90141046 -0.23283651 -0.95188767 -0.19924095 0.04478639
-0.29497007 1.281649 0.83461308 -0.053648658 -0.99713898 -0.053250834 0.055593301
-0.19716784 1.1683016 0.59180385 -0.47065589 -0.86398852 -0.17890468 0.11367566
-0.16426563 1.2564301 0.50944161 -0.98312283 -0.18285057 -0.0059393574 0.02349834
-0.11699934 1.1887264 0.39216495 0.25672212 -0.74178386 0.61955667 0.21041428
-0.068158358 1.1968142 0.27056256 0.29167438 -0.33062273 -0.89756042 0.17415372
-0.13755384 -2.1744697 0.45375282 -0.93312484 0.34274146 -0.10865734 0.1685663
-0.18478985 -2.1586969 0.56773365 0.35262167 0.27807191 -0.89349532 0.16562426
-0.23070858 -2.2114439 0.67889178 -0.47247878 0.87669557 -0.090380125 0.071827047
-0.23923457 -2.2195282 0.69952214 -0.41393641 0.9053508 -0.094850048 0.13158582
-0.27715597 -2.1673286 0.79082018 -0.24630323 0.96772403 0.053338364 0.036067333
-0.41297656 -0.69243723 1.1110837 0.23729795 0.21312447 -0.94776982 0.048176214
-0.41459441 -0.66360408 1.1148398 -0.23886283 0.8022083 -0.54718047 0.11087661
-0.41111887 1.2735076 1.0963215 -0.067465678 -0.9965983 -0.047331516 0.015875051
-0.39131391 1.2732106 1.0484989 0.12919293 -0.99161243 0.0037521452 0.018893242
-0.34697205 1.281131 0.94138294 0.14623228 -0.98889792 -0.026401477 0.023306595
-0.29574901 1.2804379 0.8176955 -0.2475504 -0.96879309 0.012594077 0.08613836
-0.27405214 1.2785007 0.76531309 -0.11015723 -0.99035299 0.084061816 0.042211309
-0.24301209 1.2762588 0.69037068 0.24759005 -0.94037002 0.23324516 0.06294407
-0.20291862 1.1814814 0.59405029 -0.60417545 -0.52690947 -0.59777796 0.15752694
-0.16672008 1.1686574 0.50670677 0.86408889 -0.49438524 -0.094518065 0.11131738
-0.068439901 1.1868324 0.2692894 0.0010856986 -0.95087904 0.30956084 0.19337976
-0.059193298 1.2280847 0.24674551 0.91299552 -0.40539634 0.04574823 0.13391885
-0.025431041 -0.20235775 0.17352861 0.99688333 0.018997973 0.076567985 0.0027668537
-0.095394239 -2.1975172 0.34815228 -0.85059261 0.42036536 -0.31588781 0.12791717
-0.11144845 -2.2263486 0.38603115 -0.11834165 0.97839683 -0.16951352 0.2088235
-0.1233464 -2.2365205 0.41404641 0.4023203 0.88086635 -0.24942522 0.11866716
-0.16522415 -2.2220726 0.51239622 0.99334973 -0.026101599 0.11213877 0.14075191
-0.17667048 -2.2185001 0.53927982 0.83600396 0.53050572 0.14021808 0.17510076
-0.20464477 -2.1251378 0.60454988 0.23252361 0.93112051 0.28097552 0.21339321
-0.24014628 -2.2228129 0.68848658 -0.50621754 0.84162599 -0.18817401 0.17600505
-0.27777711 -2.1595004 0.77660543 0.012335424 0.93481505 0.35492074 0.043252707
-0.32359391 -2.1688769 0.8843348 -0.066082612 0.99765748 0.017684534 0.035651661
-0.18087789 -0.40857339 0.53992271 0.58319348 0.75844699 -0.29093555 0.11531304
-0.20775314 -0.38656142 0.60297418 -0.27356187 0.57867467 -0.76830947 0.12318978
-0.42468256 -0.65985322 1.114211 -0.10827092 0.62882102 -0.76997507 0.10936178
-0.42750064 1.276888 1.1109407 -0.034399848 -0.99783367 -0.05607615 0.015762853
-0.39028156 1.2760657 1.0234704 0.006168298 -0.99607211 -0.088330641 0.018911306
-0.3786357 1.2686131 0.99613768 0.063863903 -0.99089617 0.11851698 0.044571154
-0.35827729 1.2741077 0.94826204 0.085029572 -0.98874766 -0.12307753 0.019785017
-0.32819775 1.2727221 0.87757432 -0.047821313 -0.99466962 0.091353111 0.060044743
-0.31954885 1.2726139 0.85724771 0.032639638 -0.99584264 -0.085041165 0.077884823
-0.2973378 1.2735462 0.80504119 -0.064233445 -0.9961009 -0.060472932 0.079252355
-0.21102883 1.165534 0.60274434 0.72270554 -0.66584283 -0.18533775 0.089584403
-0.20313929 1.1898513 0.5840776 0.98794818 0.0080008702 0.15457794 0.12461196
-0.18595384 1.1612378 0.54383349 -0.52600563 -0.83826041 -0.14365776 0.10432538
-0.11763504 1.1777655 0.38318202 0.91811097 -0.37938115 0.11463939 0.11273156
-0.11624053 1.2553567 0.3795082 0.96081483 -0.16564222 -0.2222556 0.1054843
-0.11047739 1.2696503 0.36589026 0.99784982 0.0036561401 0.065440021 0.048017833
-0.068480156 1.1698633 0.26769558 0.026039992 -0.70709884 -0.70663512 0.10991017
0.0026398899 -0.17456833 0.11019317 -0.4291999 -0.039562933 -0.90234268 0.087899961
-0.10505399 -2.2160156 0.36615002 -0.89858735 0.40505698 0.16872908 0.097673558
-0.24079715 -2.220212 0.67596966 -0.4929772 0.8693158 -0.035546027 0.14992462
-0.24857338 -2.2156396 0.69369411 -0.63745213 0.75437582 -0.15675417 0.11866841
-0.25952348 -2.1614625 0.7184149 0.64378107 0.7652058 0.002478166 0.076376915
-0.2751759 -2.1561654 0.75411105 -0.023292569 0.993545 0.11102195 0.055516765
-0.29744637 -2.1712918 0.805013 0.0035304569 0.99918675 -0.040167894 0.038452718
-0.40761936 1.2715868 1.0392972 -0.1684029 -0.98463714 -0.04615489 0.033677995
-0.3956956 1.2766579 1.012059 -0.056480367 -0.99797863 0.029131897 0.035258826
-0.36891711 1.2730838 0.95096189 -0.052624796 -0.98719442 -0.15059122 0.01281259
-0.36115068 1.2794343 0.93320531 0.034113064 -0.9984017 0.045058731 0.030469682
-0.3502306 1.2726669 0.90831679 0.0648586 -0.99721301 -0.036872696 0.061731793
-0.32470354 1.2783312 0.85002971 0.01722306 -0.99962169 -0.02144425 0.078717895
-0.31491956 1.2733814 0.82772487 0.049619224 -0.99809575 0.036645457 0.10969631
-0.30208045 1.2799562 0.79839021 0.025706783 -0.9969421 0.073794439 0.065485232
-0.29561314 1.2757405 0.78365123 0.18866193 -0.98130751 0.037977986 0.029494427
-0.26864085 1.2775468 0.72208494 0.061377324 -0.99338406 -0.09706191 0.03645305
-0.22076409 1.1569459 0.61341965 0.25182512 -0.94817615 0.1937684 0.098830633
0.036946021 -0.19090457 0.038090009 -0.99937063 -0.0078904741 0.03458377 0.13353001
-0.11164539 -2.2341602 0.37497616 -0.2757079 0.96083742 0.027867133 0.11984512
-0.16433765 -2.2268806 0.49090183 0.94490528 0.041502841 0.32470226 0.086275488
-0.30866167 -2.1636322 0.80821276 0.074621022 0.98722011 -0.14081252 0.044505797
-0.44805855 -0.79670286 1.1083778 0.13476434 0.47231546 -0.87106633 0.039504774
-0.4497726 -0.71731657 1.1117661 0.025389303 -0.079034679 -0.99654841 0.019529162
-0.43472958 1.2778887 1.0690148 0.22421482 -0.96433175 -0.1406838 0.030601684
-0.37351474 1.2776315 0.93429929 0.024691258 -0.99692905 0.074316293 0.026846243
-0.36856556 1.27095 0.92343992 -0.03163527 -0.99516773 0.092952967 0.030565312
-0.3456938 1.2796532 0.8730635 0.059878275 -0.99431592 -0.088036992 0.03398532
-0.3294943 1.2752661 0.83743417 -0.044016626 -0.99586129 0.079516232 0.054402627
-0.31754932 1.2748666 0.81114858 -0.0961596 -0.98436117 -0.14760199 0.078988485
-0.31218386 1.2771035 0.79932982 -0.15888107 -0.9852584 0.063425288 0.058030512
-0.30532265 1.2720649 0.78425467 0.089713849 -0.98497719 0.1475514 0.028927399
-0.29714772 1.2740396 0.76625437 0.016240466 -0.99864459 -0.049450964 0.10888809
-0.29057413 1.2694719 0.75180984 0.053198289 -0.99438274 0.091504313 0.067470394
-0.28493392 1.2692579 0.7393983 0.080468364 -0.99190748 -0.098206006 0.060039356
-0.22263511 1.1504893 0.60287029 0.096409269 -0.99514037 0.020020058 0.090417907
-0.20840299 1.2339519 0.57114583 0.99562961 0.093359813 0.0023575514 0.026121721
-0.18157548 1.1556238 0.51248473 -0.42861259 -0.90294164 -0.031425666 0.12892108
-0.1622697 1.2539241 0.46952289 0.99915367 0.04093942 0.0039859265 0.023908056
-0.11813579 1.1598554 0.37285131 0.97157067 -0.2340766 -0.035475008 0.15956591
-0.10044418 1.1891737 0.33377528 -0.95029747 -0.29073086 0.11140164 0.12294033
-0.073076934 1.1442615 0.27376479 0.86581367 -0.21090171 0.45374793 0.014076388
0.052384511 0.23776017 0.00204183 0.87617838 -0.47615632 0.074743621 0.013885886
-0.12467751 -2.2096198 0.39840424 0.27850416 0.95730561 -0.077469006 0.18080334
-0.18507235 -2.1829724 0.52776611 0.99201989 0.063362144 -0.10900359 0.21186759
-0.241236 -2.2031403 0.6482777 0.19198795 0.60294348 0.77433825 0.068571679
-0.26224083 -2.1575418 0.69309688 0.54415935 0.83887643 -0.013302198 0.051000834
-0.29160291 -2.1535287 0.75603092 -0.12077378 0.97538626 0.18448627 0.071299665
-0.31909084 -2.1654916 0.81502223 0.11665466 0.99000573 -0.079247974 0.040262442
-0.15320928 -0.43824086 0.45119578 0.98066431 -0.15798636 -0.11548983 0.010713208
-0.45945162 -0.78737855 1.1094384 0.12137581 0.4721179 -0.87313944 0.03878203
-0.43665332 1.2805066 1.0507742 0.09678261 -0.99352938 -0.05943422 0.048171185
-0.4174774 1.2760657 1.0096816 0.013299096 -0.99990785 -0.0027205818 0.026657123
-0.41036347 1.2755569 0.9944315 0.012026528 -0.99969655 -0.021499509 0.01124218
-0.40069777 1.2777545 0.97369766 -0.041198343 -0.99559206 -0.084257357 0.015163833
-0.3873345 1.2781326 0.94504476 -0.0055726529 -0.99969888 0.023898203 0.018614251
-0.36436734 1.2777339 0.89580441 -0.069257945 -0.99146765 -0.11043174 0.021440757
-0.34894994 1.2793851 0.86274135 0.078003354 -0.98771381 -0.13541368 0.029369768
-0.34235969 1.277851 0.84861898 -0.0023710437 -0.99725366 0.074023642 0.025474578
-0.31478623 1.2763909 0.78950775 -0.099919297 -0.9872213 0.12413804 0.024474649
-0.29803234 1.2803067 0.75356853 -0.41509563 -0.89958847 -0.13578026 0.11944222
-0.27225432 1.2793536 0.6983043 -0.1927847 -0.9811123 -0.015895797 0.050087441
-0.23734196 1.1715658 0.62396133 -0.189445 -0.8007431 0.5682615 0.04374015
-0.17673056 1.1681528 0.49402526 0.27971822 -0.9450345 -0.16931477 0.22120397
-0.16039433 1.2593712 0.45856842 0.99958062 0.026391562 -0.011922581 0.020655999
-0.11692409 1.2559972 0.36538318 0.97228557 -0.2332685 -0.015702773 0.1046785
-0.070971578 1.1266339 0.267472 0.81828958 -0.14173144 0.55705875 0.0091470461
0.040125892 0.22125138 0.03356022 0.092324398 -0.94001102 -0.32841381 0.16417421
0.041603751 -0.22081633 0.038252741 -0.8100611 0.29506627 0.50669217 0.12083051
-0.042668581 -0.35377461 0.21340333 -0.84576911 -0.065116145 -0.52956069 0.0027633992
-0.10652931 -2.2287288 0.35429162 -0.86868638 0.47678661 -0.1343821 0.12793101
-0.21698199 -2.107398 0.58249545 0.11032368 0.93406415 -0.33963624 0.063727878
-0.28524256 -2.1506932 0.72407115 -0.04162547 0.99644071 0.07330215 0.027681854
-0.33616775 -2.1661918 0.82961518 -0.17682379 0.97152579 -0.15770555 0.034494057
-0.42510343 1.2783021 0.99796867 0.048115127 -0.99879509 -0.0096613178 0.013848401
-0.40399289 1.2784512 0.95424527 0.068706892 -0.99679387 0.041005444 0.013757284
-0.37671044 1.2777985 0.89774275 -0.035397418 -0.99467963 -0.096744008 0.022030236
-0.33488563 1.2772324 0.81112069 -0.048002679 -0.9871732 -0.15226546 0.039541461
-0.32963461 1.2813251 0.80022627 -0.070537135 -0.99486238 -0.072617829 0.033067506
-0.3131777 1.2758073 0.76616734 0.007150752 -0.94465506 -0.32798734 0.1023038
-0.23622008 1.1634718 0.60729468 -0.40824333 -0.91043752 0.066640049 0.052818883
-0.16451176 1.1745588 0.45872641 0.88186443 -0.47140566 -0.0095744906 0.083270311
-0.15907836 1.2647337 0.44705838 0.99942315 0.033417925 -0.0060627265 0.016706435
-0.01351532 0.1687602 0.15061955 0.93235147 -0.32931358 -0.14924237 0.0316565
0.062657729 0.25520614 -0.0075424002 0.8383503 -0.53443635 -0.10745519 0.019943515
0.0057665301 -0.18854174 0.11466709 -0.2321866 0.97266412 -0.0037272093 0.12249041
-0.025714369 -0.22047967 0.17830546 -0.97843844 -0.015696786 -0.20594114 0.0067071533
-0.089615583 -2.188379 0.31604964 0.93914944 0.020634653 0.34288833 0.088761099
-0.13773455 -2.2136319 0.41321567 -0.8376683 0.40430585 -0.36721715 0.16928288
-0.16898678 -2.1545985 0.4759832 -0.16404021 0.96141738 -0.22083345 0.21765685
-0.26057747 -2.1615007 0.6607458 0.50131893 0.8636694 0.052483499 0.074041873
-0.22031502 -0.40873182 0.57164782 0.090378985 0.97417295 0.20692693 0.067547455
-0.23388454 -0.42026168 0.5990684 0.16080353 -0.083392777 -0.98345709 0.1486222
-0.23470068 -0.4183225 0.6007058 0.1128839 -0.15569249 -0.98133433 0.14692026
-0.45529971 1.277279 1.038003 0.029126367 -0.9995079 -0.011648939 0.026568914
-0.43671593 1.2777048 1.0005189 0.01504996 -0.99835521 -0.055320043 0.030105796
-0.42078701 1.2731934 0.9684118 0.16239622 -0.98655808 -0.018183768 0.0078765955
-0.39377034 1.276889 0.91390461 0.042608444 -0.99908048 -0.004755504 0.016829429
-0.37317017 1.2757541 0.87236071 0.045154411 -0.99896318 0.0058094966 0.052248072
-0.35413983 1.2783312 0.83396643 0.022760609 -0.9982686 0.054237735 0.033735726
-0.32254094 1.2784263 0.77023339 0.02277967 -0.99800396 -0.058898997 0.088801898
-0.3127664 1.2758328 0.75053054 0.22484553 -0.97403401 -0.026498264 0.12338439
-0.30496082 1.2819505 0.73475981 0.021848315 -0.99946558 0.024315255 0.05849399
-0.16106406 1.2608242 0.44462606 0.99428779 -0.10629091 0.0096985353 0.013503356
-0.11638345 1.1956221 0.35480225 0.6114729 -0.14101747 -0.77859807 0.2447919
-0.00091467 0.21430077 0.1263288 0.42211926 -0.52350193 -0.74010891 0.24376805
0.08476156 0.28609574 -0.046796899 0.86808592 -0.37639365 -0.32365832 0.046218146
-0.04756657 -0.38526207 0.22242378 -0.73311949 -0.070181653 -0.67646915 0.0070924745
-0.14091039 -2.2275541 0.41271195 -0.59866714 0.4438597 0.66677302 0.21432106
-0.21169096 -2.2076511 0.55078828 -0.77852762 0.61797911 -0.10952888 0.12942639
-0.22609532 -2.1142626 0.57849592 -0.08634942 0.85887069 -0.50486135 0.092150688
-0.28397471 -2.1561358 0.69166005 -0.052311026 0.99520409 -0.082658321 0.019026469
-0.29301149 -2.1551285 0.70929551 -0.14248082 0.98926365 -0.03250641 0.023802133
-0.31124073 -2.1535287 0.74487191 -0.029619435 0.99469769 0.098485172 0.054203916
-0.32639 -2.162627 0.7744832 -0.19451013 0.97498369 0.10757633 0.058401249
-0.4701806 1.2780124 1.0400701 0.020681342 -0.9913674 -0.12947166 0.017769607
-0.44615346 1.2752461 0.99318123 -0.0051735663 -0.99860328 -0.052580368 0.036891863
-0.43388781 1.2719212 0.96925324 -0.044221107 -0.99727368 0.059073664 0.026242599
-0.4237543 1.2747874 0.94946015 0.077614322 -0.99563092 -0.051913243 0.020393955
-0.40939224 1.2749516 0.92142469 -0.025821196 -0.99855638 -0.047098558 0.015754052
-0.39863509 1.2743976 0.90042919 0.094342619 -0.99322987 0.067778654 0.010162219
-0.36927751 1.279946 0.84309882 0.10290769 -0.99051917 0.091004401 0.031380389
-0.34685493 1.2828344 0.79931736 0.075712964 -0.99348438 0.085184537 0.053273551
-0.33985895 1.280661 0.78567076 0.14290921 -0.98300081 0.11526651 0.046190891
-0.22872199 1.1588873 0.56926566 -0.068088256 -0.98923796 -0.12950762 0.10308229
-0.0068448898 0.1934887 0.14039643 0.88652414 -0.35087046 -0.30160394 0.18083827
0.01335828 0.22454664 0.10082363 -0.65364796 -0.46161395 0.5997141 0.10248282
0.037199881 0.24124427 0.054211602 0.6584847 -0.73202181 0.17476253 0.10323551
0.096992813 0.3282544 -0.062885821 -0.24651222 -0.73229474 -0.63480401 0.18401872
0.097646877 0.32695976 -0.06415686 -0.24651301 -0.73229432 -0.63480431 0.18401878
0.033393279 -0.20802666 0.067069463 -0.38772374 0.49092939 -0.78016573 0.054994576
-0.04295228 -0.34272498 0.21292132 -0.83144122 -0.023463339 -0.55511695 0.0028824767
-0.10648214 -2.2284398 0.34191495 -0.90368438 0.41067708 -0.12123881 0.059154123
-0.19231376 -2.1469824 0.50488788 -0.81162745 0.54590178 -0.20797162 0.05946593
-0.21969301 -2.2069082 0.55724365 0.99990839 0.013391162 -0.0020074174 0.16936199
-0.23840398 -2.1104984 0.59243298 -0.15917087 0.89695114 -0.4124842 0.12825823
-0.28460601 -2.1594822 0.68055826 -0.095563956 0.99298048 -0.069693141 0.013288388
-0.31182715 -2.1523118 0.7323246 -0.11511523 0.99283028 -0.032195028 0.031022148
-0.33760834 -2.1674626 0.78144711 -0.045818761 0.99766165 -0.050713021 0.037962433
-0.19984874 -0.41800433 0.51179254 0.093725212 0.99458683 0.044863544 0.15416208
-0.21853673 -0.40470326 0.54729539 0.1030131 0.10568581 -0.98904949 0.16251923
-0.46463111 1.2715868 1.008365 0.016053168 -0.99956745 0.024640903 0.035225034
-0.42027453 1.2747667 0.92394811 0.042073801 -0.99841976 0.0372518 0.019727243
-0.38468182 1.2746944 0.85622156 0.12886705 -0.99160588 -0.010539125 0.051000409
-0.37041715 1.2726139 0.8290872 0.17233494 -0.98497701 -0.011004979 0.025669698
-0.35026318 1.2722106 0.7907393 0.033987518 -0.99705684 0.068720371 0.054070096
-0.30334118 1.2766329 0.70143563 -0.080737725 -0.97687292 0.19799154 0.077447541
-0.26154488 1.1561185 0.62242246 0.23108262 -0.92634702 0.29745933 0.068685375
-0.25011709 1.1681333 0.60062569 0.17990789 -0.76702309 -0.61588049 0.11229631
-0.24553996 1.1729797 0.59189528 -0.1897058 -0.76006019 -0.62154657 0.1591029
-0.22795579 1.1643546 0.55847263 -0.31998962 -0.92408311 0.20899034 0.17066808
-0.21172547 1.1612378 0.52760249 0.61951387 -0.78323978 -0.05232574 0.099755235
-0.16326621 1.257111 0.43498051 0.99029368 -0.13129333 0.045612015 0.015083382
-0.11491778 1.2404134 0.34305334 0.95636177 -0.006467286 -0.2921136 0.24434417
-0.1082592 1.2583231 0.33030623 0.99974972 -0.016591454 0.015004105 0.067933746
0.099937677 0.3282544 -0.061858911 -0.17324191 -0.82199621 -0.54250294 0.16054209
0.1083704 0.33054191 -0.077914789 -0.72741985 -0.16096304 -0.66704673 0.13180514
-0.21414167 -2.2113066 0.53811139 -0.87128717 0.48277527 -0.088242307 0.16440967
-0.252121 -2.117321 0.60818118 -0.398435 0.85168272 0.34042031 0.14617735
-0.28426889 -2.1559911 0.66799057 -0.071208484 0.99730581 0.017623445 0.020476544
-0.29823649 -2.1537189 0.69389617 -0.11086785 0.98922944 -0.095568977 0.021560686
-0.30848792 -2.159385 0.71294039 -0.057012245 0.99814951 -0.02114499 0.020278767
-0.34823433 -2.1665003 0.78671491 0.015619276 0.99976629 0.014948899 0.037077062
-0.35720265 -2.1606228 0.80332971 0.15715814 0.98754615 -0.007359101 0.059778143
-0.22294633 -0.39286485 0.5467819 0.058099799 0.20271224 -0.97751325 0.14453857
-0.23537146 -0.40468025 0.56988502 -0.011737677 0.90061015 0.43446919 0.020834036
-0.24717249 -0.41035074 0.59180427 0.43149087 0.20080142 -0.87948531 0.21314074
-0.46649578 1.2762462 0.99162191 0.003845813 -0.98350221 -0.18085507 0.021326689
-0.45930797 1.2783021 0.97827727 -0.0049089692 -0.99919277 0.0398717 0.032401942
-0.40526539 1.273522 0.87802804 0.035780795 -0.99893504 0.029126558 0.034100138
-0.3877342 1.2744548 0.84549707 0.18589437 -0.98180437 0.0387761 0.080305889
-0.37483791 1.2783312 0.82155329 -0.013969393 -0.9861576 -0.1652212 0.048363537
-0.35007867 1.2744354 0.77563196 -0.059777956 -0.99253422 -0.10631303 0.048588499
-0.34108743 1.2784263 0.75893307 -0.082970522 -0.99497378 -0.056062669 0.030644901
-0.31620824 1.2834673 0.71275151 -0.039037846 -0.98882568 0.14387445 0.066322871
-0.27016562 1.1641695 0.627828 -0.059570231 -0.81086558 0.58219272 0.09083128
-0.26042035 1.1574625 0.60977507 0.075267799 -0.98885697 -0.12843962 0.064573109
-0.19151968 1.1820959 0.48183453 -0.52462661 -0.84560865 -0.09855441 0.12348656
-0.18308167 1.1568055 0.4662855 0.19820789 -0.96816927 0.1528461 0.11001791
-0.16279534 1.1805294 0.42854667 0.87766433 -0.41725358 -0.23580661 0.10557236
-0.11667395 1.2079822 0.34285837 -0.90642869 0.023406569 -0.42170981 0.16854982
0.03278989 -0.19445625 0.075349309 -0.63093436 0.44873106 -0.63289994 0.063734278
-0.12598367 -2.1715617 0.36915821 -0.972498 0.17172168 -0.15735085 0.060583279
-0.2143369 -2.2228124 0.52833658 -0.9907065 0.12818512 0.04548768 0.11937304
-0.23856415 -2.1191661 0.57150018 -0.050037138 0.89501691 -0.44321668 0.089943491
-0.24754688 -2.1153927 0.5876466 -0.40340608 0.85109377 -0.3360104 0.14581411
-0.30989051 -2.1589956 0.69999629 -0.093673833 0.99515086 -0.030000189 0.018826753
-0.31929445 -2.1558673 0.71690333 -0.09752471 0.99312234 -0.064783432 0.022322606
-0.3456496 -2.1674199 0.76436967 0.003966968 0.99159777 0.12929818 0.017072681
-0.25789917 -0.38604966 0.59915316 -0.11056124 0.49063709 -0.86432135 0.20269735
-0.49905258 0.72280401 1.0284774 0.51289141 -0.85410357 -0.086310282 0.056439083
-0.46797112 1.2750138 0.9702816 0.11706842 -0.9929198 0.020128563 0.037407614
-0.43532214 1.2705595 0.91155702 0.012380322 -0.99959314 -0.025697917 0.020339763
-0.42941219 1.2759393 0.90090156 0.031428628 -0.99156201 -0.12576576 0.020957626
-0.39996517 1.2764227 0.84791774 0.082471579 -0.99496251 -0.056991775 0.066016756
-0.37870994 1.27702 0.80967236 0.17637494 -0.98410159 0.020878473 0.086205363
-0.32901326 1.2828571 0.72023278 -0.034590293 -0.99889326 0.031872388 0.05099339
-0.23303264 1.1642218 0.54803044 -0.58101243 -0.80806321 -0.09725488 0.090911336
-0.21365486 1.162519 0.51317245 0.48938015 -0.82948178 0.26919714 0.1131576
-0.21050934 1.2156779 0.50729406 0.99561781 0.036668688 0.086026087 0.056340937
-0.1757315 1.1561 0.4449662 0.59150678 -0.80616695 0.014651435 0.077132739
-0.16308384 1.233781 0.42189041 0.91144931 -0.12269399 -0.39269108 0.10482491
-0.16253197 1.2554663 0.4208082 0.96619534 -0.25399068 0.044219118 0.023599578
-0.11618054 1.1772624 0.33773348 0.31829771 -0.92641824 0.20108654 0.23757446
-0.0143024 0.15721224 0.15863118 0.8876425 -0.23937228 -0.39343581 0.066849396
0.072328359 0.26119572 0.0023348201 0.45894718 -0.78379041 -0.418378 0.022856874
-0.067088179 -0.51508433 0.25501168 -0.4921073 -0.2275344 -0.84027278 0.15314277
-0.18414161 -2.1654904 0.46721125 -0.78654444 0.60654813 -0.1159616 0.055628385
-0.23819287 -2.1268809 0.56196183 -0.45867252 0.66625232 -0.58798593 0.11693324
-0.2636843 -2.0537286 0.60642564 0.38346329 0.64038742 0.66547716 0.096615054
-0.30002636 -2.1594822 0.67066473 -0.090200312 0.99591589 -0.0039331187 0.013516932
-0.33029273 -2.1619461 0.7238183 -0.18608049 0.98206794 -0.030274443 0.026161376
-0.36693379 -2.169311 0.78818476 -0.035983484 0.99832124 -0.045386352 0.01887024
-0.18306237 -0.41661021 0.4582485 -0.21285233 0.97112304 -0.10776692 0.16157077
-0.21509206 -0.40177745 0.51442838 0.14049993 0.97719222 -0.15923326 0.11500882
-0.25959137 -0.41380745 0.59261167 0.1292661 0.94584626 -0.29776669 0.22345546
-0.48468468 1.2770633 0.98101139 0.44449353 -0.89517462 -0.032983981 0.07210096
-0.46057364 1.2777545 0.9386729 -0.047508456 -0.99752069 -0.051917851 0.027618123
-0.42914277 1.2769496 0.88348794 -0.017319378 -0.99981004 -0.008940164 0.0371917
-0.42430961 1.2735556 0.8750152 -0.058178768 -0.99582869 0.070287772 0.029812321
-0.37328067 1.2736994 0.78541476 -0.046248391 -0.99544746 -0.083340473 0.072318941
-0.36111939 1.2808474 0.76403242 0.036659621 -0.99932557 -0.002102236 0.033740882
-0.35292071 1.2757405 0.74965727 -0.0082656443 -0.99825901 -0.058401078 0.040526655
-0.34719062 1.2803334 0.73957747 -0.036674388 -0.98706818 -0.1560495 0.04244262
-0.32302499 1.2777939 0.69715613 -0.076909721 -0.99703616 -0.0019466912 0.10442139
