# .PCD v0.7 - Point Cloud Data file format
VERSION 0.7
FIELDS x y z intensity
SIZE 4 4 4 4
TYPE F F F F
COUNT 1 1 1 1
WIDTH 1070
HEIGHT 1
VIEWPOINT 0 0 0 1 0 0 0
POINTS 1070
DATA ascii
-0.22607422 -2.2334595 0.33862305 3.7588179e-06
-0.17761135 -2.2168205 0.33354306 0.0060260594
0.26339719 -0.42851579 0.21203348 4.003942e-05
0.27471352 -0.43942398 0.16757163 0.0032215603
0.30781826 -0.42823184 0.15128247 0.019036464
1.2783175 -1.6312504 -0.1855793 0.0020518042
0.45844698 -0.40329403 0.105524 0.0038799345
0.55351067 -0.40490246 0.069985345 0.0046939291
0.5810864 -0.40611148 0.055404544 0.004993964
0.6807673 -0.40338588 0.026970744 0.0024313964
1.6013107 -26.111382 -29.584328 0.0015498996
0.86207449 -0.40867269 -0.036195219 0.009509176
0.73998642 0.33886719 0.0078659058 7.9039484e-05
0.70999372 0.36871719 0.017247736 0.0080754049
0.37529454 0.24448147 0.1327942 0.014232151
0.36237496 0.25532597 0.13711706 0.022422045
0.35197496 0.26206726 0.14613223 0.020295415
0.71947515 0.64549541 0.01809144 0.00092539191
0.70966506 0.74265313 0.028336763 0.0062249079
0.61765003 0.73719859 0.058764696 0.0061613955
0.70986938 0.93411255 0.021461487 6.7640096e-05
0.71266991 1.0005331 0.018746018 0.0074255019
0.42983508 0.68774587 0.11479473 0.0016660132
0.22626841 0.57890493 0.19271445 0.012369815
0.28040063 0.79890823 0.16630936 3.5427511e-06
0.24951839 1.2796247 0.18203783 0.0086807013
-0.44937259 1.281296 0.43561855 0.013414837
-0.49034953 1.1634281 0.43746513 0.019093689
-0.49370551 1.0809696 0.44284809 0.023985878
-0.49413964 0.9580611 0.42511293 0.0043320283
-0.49456596 0.59283376 0.43754137 0.0086636618
-0.20949231 -0.63760501 0.33313602 0.028856486
-0.44380397 -2.222671 0.40921453 0.0077452883
-0.4154911 -2.2190268 0.39832544 0.0007417798
-0.3643651 -2.2052624 0.38235185 0.026236437
-0.34650877 -2.2118459 0.37725291 0.013333324
8.7317457 -2.689611 0 0.003484875
0 0 0 0.028201379
0.25543845 -0.42459273 0.17741448 0.0024792627
0.3781172 -0.44264281 0.13724063 0.023925647
0.38709766 -0.40425116 0.13246483 0.014104199
0.44824672 -0.41105866 0.1158154 0.0040004253
0.55351067 -0.40490246 0.069985345 0.0029089078
0.63558847 -0.40595162 0.049290046 0.015419859
0.72378635 -0.40710282 0.020089746 0.0062330551
0.73835754 -0.40524244 0.015240669 0.0048546493
0.75022316 -0.40387917 0.011000633 0.00099057332
0.71288681 0.36663055 0.00084686279 0.011475839
0.71686149 0.35975504 0.024121761 0.0061540827
0.70659232 0.38142729 0.027643606 0.0099281967
0.57430792 0.32964277 0.082398057 0.014063932
0.88107002 0 2.3519859 8.0890954e-05
0.72222316 0.63797343 0.03315644 0.00080394
0 0 0.25 0.01528956
0.71812165 0.73509049 0.023700774 0.0062521361
0.62881708 0.74865317 0.054349899 0.009080641
0.71554685 0.96175671 0.025816716 0.0018374622
0.27865481 0.51500082 0.17875773 0.0086229518
0.28874493 1.2774885 0.14504671 0.0072281361
-0.065290302 1.2046384 0.29175714 0.027778618
-0.091354728 1.166456 0.3006961 0.032016553
-0.28155285 1.1698123 0.36455792 0.023951195
-0.45219612 1.2809434 0.43499911 0.010263938
-0.4911851 1.1621226 0.43878919 0.013878196
-0.48818445 1.1441414 0.43002725 0.010262161
-0.49773598 1.0989604 0.43451571 0.0089978166
-0.49737412 0.94732618 0.43454251 0.0083614402
-0.49260309 0.5603261 0.43356663 0.0077951998
-0.52687252 -1.7991186 0.42984843 0.018024676
-0.52026367 -1.8327332 0.42773438 1.7415732e-05
-0.5152092 -1.9041824 0.42589569 7.8480691e-05
-1 0 0 0.0028126203
-0.49938917 -2.1485715 0.42907077 0.013589844
-0.25898904 -2.1798117 0.34497502 0.024596594
7 -16 -1.5 0.0062782131
0.08351326 -0.37067175 0.22916067 0.0041224062
4 -4 0 0.00028575957
0.38230783 -0.41299468 0.13544828 0.0029385909
0.47322142 -0.40746054 0.11071713 0.0039090514
0.51553512 -0.40377533 0.087123156 0.00089130178
0.69432759 -0.40758979 0.039588153 0.0085803233
0.73875713 -0.41211438 0.025577158 0.018333353
0.70860493 0.34843254 0.036866695 0.012693293
0.71350288 0.36884308 0.029460907 0.0030848719
0.67153502 0.41187659 0.048942432 0.028656557
0.67153502 0.41187659 0.048942432 0.028656557
0.39838552 0.24848032 0.13647091 8.6206943e-05
0.71693242 0.58900839 0.034702122 0.017098211
0.71518588 0.61152232 0.035311386 0.0030818507
0.72013497 0.62825847 0.033823758 0.0033187829
0.72579384 0.65711641 0.031982359 0.0055451952
0.71213508 0.68661261 0.036450632 0.010434937
0.72011542 0.71671891 0.03394638 0.013762742
0.7187115 0.74255943 0.034452379 0.020560555
0.7096554 0.89650345 0.037689447 0.0006403923
0.28427029 0.51124096 0.18153286 0.0032627285
0.23761618 0.63011563 0.19372058 0.00041307881
0.31454957 1.280895 0.16415919 0.0031641684
-0.11623956 1.2033411 0.3230294 0.030233353
-0.24612588 1.1919653 0.35193586 0.00060206279
-0.24606964 1.1926832 0.35229379 0.022216365
-0.38708371 1.2707845 0.39987499 0.0028998405
-0.39759827 1.2793829 0.39711595 0.0098621659
-0.43244892 1.2863263 0.40916207 0.0080148429
-0.49302685 1.0772994 0.41544914 0.001738824
-0.49280214 1.0130539 0.42471266 0.013951294
-0.4938975 0.70755255 0.41585469 0.0017651692
-0.49198437 0.62698531 0.42144725 0.0057502389
-0.49790585 0.59540248 0.42787933 0.0083178766
-0.19153407 -0.4026143 0.30689847 0.00059839711
-0.52197266 -1.690918 0.42578125 0.0015967116
-0.44874382 -2.2235494 0.39742565 0.0059021972
-1 -0.875 -1 0.021152437
-0.33507022 -2.2338331 0.3624081 0.010700155
-0.30723816 -2.2393696 0.35382968 0.036654867
0.0048866272 -0.42157805 0.26187074 1.3332814e-05
1.1591606 -1.6747208 -0.097120285 0.00072460249
1.3156738 -1.6238403 -0.14442444 5.1822513e-05
0.55989313 -0.40967488 0.10214329 0.0023752302
0.71430826 0.36812115 0.033452988 0.00030259788
0.38552576 0.24049778 0.15163618 0.017413363
0.72046232 0.70896292 0.043608785 0.0021205954
0.7096796 0.74315131 0.026382178 0.0048766173
0.67644477 0.74400783 0.052239373 0.023627169
0.26519847 0.62244236 0.18452471 0.0050005391
0.4245472 1.2655199 0.13777113 0.013125986
-0.078509733 1.2040454 0.29090598 0.014641203
-0.13285995 1.151479 0.30607051 0.027188145
-0.32312822 1.2688761 0.3711884 0.0085425973
-0.34503055 1.2751207 0.36648363 0.0012055561
-0.42477274 1.2714647 0.38471121 0.0096918866
-0.46951985 1.2780123 0.41080552 0.0059741512
-0.49499047 1.2255969 0.42390397 0.011754796
-0.4994663 1.1597928 0.42095882 0.0069631785
-0.49099827 0.94193864 0.41906333 0.0065407678
-0.49256098 0.91762954 0.42467985 0.0028963014
-0.49184158 0.82771051 0.41793799 0.00054200366
-0.49661994 0.65412188 0.41645831 0.0044292137
-0.35610092 -0.40719104 0.37432224 0.0055289119
-0.3077898 -0.40402657 0.36308327 0.0060211979
-0.17443961 -0.49362433 0.31381178 0.00011574849
-0.52883691 -1.6389903 0.41703013 0.0097817704
-0.51039124 -2.1419029 0.40836263 0.0051181205
-0.50056493 -2.1463704 0.40843806 0.032275513
-0.42635 -2.1992841 0.38546956 0.010040648
-0.35163498 -2.1965904 0.41401672 0.0069374479
-0.31509364 -2.2181258 0.35251081 0.012125172
0 0 0 0.015635025
-0.15352964 -2.2060251 0.304883 0.0038118139
0.35131985 -0.50238079 0.15926653 0.011459444
1.2795935 -1.6268835 -0.11861777 3.1851232e-06
0.38004446 -0.40260512 0.14581347 0.0095053464
0.38662308 -0.40380907 0.13147332 0.0018299669
0.48295808 -0.40319312 0.11983252 0.0025533438
0.5222702 -0.40422499 0.10764217 0.00077489763
0.59367973 -0.40741694 0.08464931 0.012250755
0.64970827 -0.40581465 0.072821796 0.0017261207
0.67228127 -0.40331507 0.069939137 0.0010433011
0.67203009 -0.40719488 0.057165548 0.0081316195
0.70448768 -0.40869686 0.055944934 0.003840588
0.73682022 -0.40965843 0.055999756 0.00045573711
1.1836329 -3.287617 3.287617 1.077354e-05
0.85548592 -0.40548992 -6.9141388e-05 0.0043775588
0.70860982 0.38092208 0.03798008 0.0057410933
0.37869751 0.2612673 0.15988716 0.015937679
0.71919042 0.59813046 0.048002601 0.0017560609
0.7168079 0.61584902 0.050466657 0.0044634566
0.71604347 0.63057184 0.052880406 0.0035472363
0.71419644 0.70318007 0.05627501 0.0063675418
0.29530954 0.46488094 0.17284438 0.013282202
0.29483366 0.47871208 0.17988977 0.0046896823
0.25243771 0.61395484 0.18939099 0.020398963
0.13438307 1.167545 0.22229297 0.024373159
-0.1678451 1.1947768 0.32510242 0.0015264638
-0.3246882 1.2696543 0.37150848 0.010559116
-0.49848223 1.0469025 0.41303015 0.013927549
-0.48970011 0.94425941 0.39623648 0.00084850565
-0.49389118 0.90277696 0.41137671 0.0063768066
-0.49369356 0.86330652 0.41344866 0.0024257265
-0.49047124 0.74349749 0.40880543 0.0041449629
-0.49094528 0.66357636 0.41322392 0.0084663555
-0.49277091 0.59491324 0.40204847 0.0028126761
-0.517286 -1.6843301 0.40851781 0.025551423
-11.75 18.78125 -45.75 0.011195138
-0.36421806 -2.2232299 0.36274838 0.016524654
-0.33877468 -2.2225704 0.34872627 0.013567023
0.20525008 -0.39172763 0.20102939 0.0022541806
1.2713394 -1.6450764 -0.10193771 0.0011087544
16 0 1 0.00017589331
1.3251953 -1.6260986 -0.11694336 2.0824373e-05
0.76701164 -0.40493023 0.047149539 0.0013515167
0.84082603 -0.4062748 0.023430824 0.0012566522
0.70940328 0.38106346 0.045337677 0.0046838373
0.5598613 0.314417 0.10517454 0.027707726
0.35505196 0.26556534 0.1582583 0.023278773
0.71920109 0.60677433 0.057235003 0.0048019178
0.72450244 0.65829754 0.054185271 0.0048939958
0.71419632 0.70318079 0.056274891 0.0061860047
0.31778407 0.40223888 0.17501077 0.017753251
0.37633681 1.2799498 0.15630496 0.0094638132
0.27198243 1.2791209 0.17805952 0.0020003654
0.24008083 1.2855891 0.20141941 0.00063506886
0.24003696 1.2859533 0.19960332 0.0015029833
0.20842195 1.2799721 0.22812307 0.024781652
-0.069441721 1.2430779 0.28890267 0.034313083
-0.16646099 1.2348886 0.31157732 0.0054145716
-0.22264951 1.1663817 0.32666427 0.026354082
-0.4932251 1.139226 0.41891098 0.0041814446
-0.49504626 0.7595768 0.40516412 0.00073264912
-0.19129506 -0.40259239 0.307042 0.0022811145
-0.52132654 -1.6272235 0.4026925 0.036904402
-0.52295238 -1.9980041 0.40236846 0.0087446347
-0.516819 -2.1544051 0.40039471 0.0090225749
-0.47594154 -2.163517 0.39080518 0.0076622814
-0.47221369 -2.2163396 0.38804787 0.028138347
-0.43130141 -2.2070975 0.37687817 0.030853964
-12 -0.0078125 -20 0.011008278
-0.31047392 -2.2334375 0.34379789 0.032541387
-8.7109375 -0.18554688 -6.5 1.873821e-06
0.11261654 -0.38157666 0.23159887 0.0023038983
0.31817919 -0.4889704 0.17352749 0.013904449
0.34098577 -0.49162018 0.17328811 0.0089412406
1.3169537 -1.6234417 -0.098751783 0.00052523986
0.79352188 -0.92417049 0.044684649 0.00068290532
0.44459164 -0.40367866 0.1435646 0.0042264089
0.44409442 -0.40322649 0.14025974 0.0039029121
0.57274914 -0.40389848 0.10378313 0.00039244071
0.62838745 -0.4075141 0.076824188 0.0091448836
0.69431078 -0.40289927 0.072888985 0.0012262724
0.73817635 -0.40921497 0.055827618 0.0057950132
2 -0.25 0.5 0.006680619
0.92051506 -0.40922832 0.01103425 0.0027478784
0.91043705 0.26503605 0.015076548 0.025336809
0.7189303 0.33512056 0.066500224 0.017708696
0.71248585 0.35135502 0.067961693 0.0063373148
0.72334397 0.38778961 0.066603184 0.012133084
0.55848765 0.33101988 0.11252549 0.024084069
0.288203 0.5543921 0.18749547 0.033757515
0.23852056 0.61373585 0.20544779 0.0059618279
0.41900325 1.2784151 0.15152584 0.021697357
0.35667276 1.2717044 0.16807985 0.0040899776
-0.068668351 1.2264961 0.27891091 0.028747387
-0.20653924 1.1935121 0.31929481 0.030679673
-0.49352813 1.2724643 0.39135379 0.0084815547
-1.625 16 10 0.010210223
-0.4923439 1.1398973 0.42058945 0.0045944601
-0.48981726 1.1002924 0.39985076 0.028085262
-0.49414432 1.0393889 0.39861482 0.017078184
-0.49128908 0.99419379 0.40633002 0.0087242909
-0.49742937 0.95466685 0.40647852 0.0062569827
-0.16115269 -0.45026696 0.34663397 0.0017058924
-0.21100008 -0.64136791 0.31701848 0.029409282
-0.52596438 -1.8774799 0.40015364 0.031317994
-0.3973875 -2.2245789 0.36304346 0.01969137
-0.36155605 -2.2155647 0.3400383 0.0073924586
-0.2398814 -2.229068 0.32167149 0.0029349811
-0.15159321 -2.2256632 0.29104644 0.00292271
-0.20446253 -2.2167892 0.31532466 0.0023328885
0.29354602 -0.46482778 0.18662822 0.0022481307
1.3266602 -1.6199341 -0.08770752 3.3520162e-05
0.43823695 -0.40750575 0.15076229 0.0012335703
0.63339949 -0.40680772 0.097694278 0.0091913007
0.65531993 -0.40640831 0.090092421 0.0072700232
0.70966852 -0.40767652 0.076572895 0.0051799901
0.75884962 -0.40857142 0.065997124 0.0020110309
0.75884962 -0.40857142 0.065997124 0.0020110309
0.85281229 -0.4052763 0.039003849 0.0067833364
0.911273 0.2686348 0.025007248 0.014074717
0.71175539 0.3487848 0.067788959 0.024534002
0.37915897 0.26051223 0.16158777 0.01480969
0.33861578 0.36520278 0.17095774 0.012117848
0.31839937 0.51895356 0.18436575 0.0010820217
0.30912924 0.54761362 0.1860795 0.0069767386
0.29232335 0.58546829 0.18914649 0.0043555163
0.37595081 1.2812577 0.16730595 0.0042079315
0.31427193 1.283386 0.18005478 0.01772581
0.16578841 1.2711364 0.22308475 0.011612035
0.081568956 1.173996 0.25484064 0.019338273
-0.43809479 1.2820531 0.38888282 0.009056218
0.5 -12 1.5 0.026786827
-0.49431628 0.85818899 0.39516819 0.0048288517
-0.4903684 0.81294554 0.37288162 0.0032452643
-0.21617973 -0.63207787 0.31238979 0.017092701
-0.52157116 -1.7420511 0.39194107 0.0026375577
-0.51795602 -1.9045684 0.39001882 0.032070793
-0.41780615 -2.22173 0.36373848 0.021614365
143.2345 18.622414 16.119034 0.024230517
-0.16650939 -2.221823 0.30424464 0.027268291
-0.13481283 -2.2243738 0.28495365 0.0084230676
0.1279788 -0.38197231 0.22930628 0.0044233352
0.35428309 -0.49559614 0.17596295 0.01142364
1.3242188 -1.628418 -0.071166992 6.1653554e-06
0.39949894 -0.40446436 0.15534377 0.0011557154
0.48798704 -0.40240404 0.14303476 0.00086048618
0.55760193 -0.40080357 0.13295257 0.020402275
0.59721279 -0.40398559 0.11345232 0.0053945892
0.61229455 -0.40740404 0.10888195 0.0032682717
0.74760866 -0.40699935 0.071691036 0.0015919209
3.9312539 -0.042898417 4.546279 0.0013054423
0.25 -0.75 -1 0.0021858588
0.87880945 -0.40810156 0.041900635 0.006700255
0.72342074 0.35359311 0.089099884 0.0058295727
0.72792244 0.39106941 0.07806778 0.0010312423
0.37911904 0.26054537 0.16143845 0.018134125
0.33861578 0.36520278 0.17095774 0.012220956
0.33888829 0.37432098 0.17894974 0.011544891
0.32048225 0.49352312 0.18627787 0.0011334829
0.24009117 0.59276044 0.21342391 0.01654394
0.3129425 1.2846158 0.17590046 0.0013645105
1.4284863 -2.2983742 -12.260128 0.0082164072
-0.49313164 1.0589213 0.39061558 0.012028702
-0.49138662 0.9330554 0.40386271 0.0052464865
-0.49367324 0.88564682 0.4311558 0.0024447218
-0.4924404 0.78568757 0.36170658 0.002660092
-0.25813419 -0.40544432 0.34401751 0.0062147453
-0.4863174 -2.1494184 0.37643737 0.013830125
-0.43167254 -2.2345531 0.36218855 0.020627953
-0.34948948 -2.2115161 0.34251386 0.033375278
-0.33450168 -2.2393529 0.33886531 0.022969656
1.3170166 -1.6205521 -0.056407928 0.00037797913
0.75 -0.828125 0.078125 0.00099116936
0.62236786 -0.41262102 0.11224699 0.0026564524
0.68014812 -0.40148717 0.098658115 0.021852568
0.77911377 -0.41593933 0.0012207031 0.002508264
0.80404949 -0.40745032 0.068996549 0.00074918941
0.90533447 -0.4093132 0.04511261 4.6167523e-05
0.72470069 0.34001273 0.09134531 0.0078078546
0.71340704 0.36197662 0.093941331 0.0055634975
0.39248371 0.2503742 0.17324042 0.0090816058
0.36016703 0.32506907 0.17775714 0.012044311
0.33858556 0.36462975 0.17158565 0.014003128
0.33918372 0.4368507 0.18341433 0.0015710816
0.34203553 0.46650791 0.1914762 0.00071933866
0.29887938 0.58537841 0.20183372 0.00042482466
0.24572086 0.64855194 0.21365166 0.00092472881
0.31674957 1.2805536 0.1895839 0.0016398467
-0.22297877 1.1660315 0.32101306 0.03494519
-0.28510574 1.1807442 0.33651859 0.003179796
-0.49359262 1.2010059 0.3787322 0.018338867
-0.49114874 1.1409986 0.37796611 0.015642039
-0.49492282 1.1030297 0.38747656 0.015587568
-0.49180207 1.0715282 0.37139913 0.0019882284
-0.48933303 0.90344238 0.37573195 0.0039383434
-0.49033779 0.78692538 0.38430092 0.0014552549
-0.49517 0.62631154 0.39282376 0.0020403303
-0.35195604 -0.40672749 0.35281131 0.0063221753
-0.20205244 -0.6323716 0.30834088 0.016718779
-0.52887535 -1.6974881 0.39846849 0.020722307
-12 -5 0 0.018377252
-0.41210747 -2.2164812 0.35410118 0.026215576
0.1188488 -0.36452389 0.23636201 0.012151249
0.44101667 -0.40547386 0.17075515 0.0013714805
0.47878605 -0.40612465 0.14842573 0.005431965
0.53390366 -0.40434521 0.15880562 0.00063432381
0.57859612 -0.41029477 0.12902617 0.0031177476
0.71826959 -0.40695465 0.098959684 0.0012384914
0.77911377 -0.41593933 0.0012207031 0.00016062334
0.25 -0.75 -1 0.013322547
0.81921387 -0.41990662 0.03112793 5.7525933e-05
0.91241455 -0.40690708 0.053421021 7.6193362e-05
0.34445798 0.34472394 0.18075201 0.011214316
0.30380535 0.63383293 0.19484544 0.0031707212
0.1094065 1.215147 0.25200287 0.030043676
-0.21568841 1.1827699 0.31375718 0.020436205
-0.25556469 1.2032199 0.32504651 0.019902907
-0.26274377 1.1933821 0.33900779 0.021341756
-0.48616219 1.2785411 0.38267517 0.0073591471
-0.49167562 1.0372748 0.38958102 0.015985943
-0.48917103 0.86944044 0.37694955 0.0042914227
-0.49164754 0.69503689 0.36902666 0.0095419139
-0.49164754 0.69503689 0.36902666 0.004374966
-0.49107462 0.56670272 0.37249571 0.015272543
-0.53017497 -1.6488076 0.37245423 0.010717079
-0.52045918 -1.8275261 0.37155676 0.0035080835
-0.51014185 -1.8717341 0.37426779 0.033242539
-0.5151577 -2.1544476 0.37093425 0.0022208579
4 -32 2 0.00026065484
0.7574873 -0.4064621 0.096325874 0.00098083541
0.25 -0.359375 0 0.00066662952
0.84972286 -0.40483353 0.072213411 0.0014868826
0.88408279 -0.4096384 0.070990562 8.6687505e-06
0.54090488 0.31561482 0.14529234 0.027108185
0.38887849 0.26162112 0.2057277 0.014305402
0.37081754 0.2880069 0.18306464 0.0087179393
0.36218894 0.37341368 0.18503365 0.0065912828
0.34545678 0.41815352 0.18744335 0.0093112998
0.35023177 0.43912983 0.18927497 0.0012320951
0.37053823 1.2735673 0.18338417 0.0011373796
-0.1257019 1.2245522 0.29119873 0.032370619
-0.12362245 1.1877725 0.29239011 0.00074501708
-0.15732658 1.218572 0.30130568 0.034038328
-0.16165519 1.2181088 0.30145404 0.033134915
-0.31915224 1.2717065 0.33119488 0.015809186
-0.39501023 1.2820991 0.34907746 0.0071954131
-0.48512459 0.96153641 0.37195969 0.0027543381
-0.48725557 0.9473505 0.3563323 0.0012098812
-0.49427137 0.62137681 0.36924207 0.00097669661
-0.578125 0.1875 -0.125 0.017063051
-0.40625 -1.5625 1.5 0.029456317
-0.23932999 -2.2409575 0.31191844 0.017226391
-3 -1.6875 0.75 0.014122803
-0.15203536 -2.2088253 0.28108054 0.023755692
0.26339719 -0.42851579 0.21203348 0.0013760887
0.62632561 -0.40502727 0.13289112 0.0017164648
0.6755451 -0.39846629 0.10025652 0.0025892109
0.82446456 -0.40126476 0.091336191 0.01281596
0.87302208 -0.40629497 0.081300735 0.00095014647
0.84075928 -0.42071533 0.087860107 7.4580312e-06
0.90356016 0.27211094 0.076376557 0.007874459
0.71235096 0.36287761 0.10286834 0.0046632104
0.52844524 0.31002307 0.1629855 0.012206901
0.529015 0.32154676 0.15370159 0.014870584
0.36855984 0.37420404 0.19322443 0.024947375
0.37068576 0.35804212 0.18880558 0.011600379
0.36165249 0.37385914 0.18515351 0.0076803043
0.3617903 0.3736397 0.18517652 0.0031808615
0.58329773 1.2491188 0.16291428 1.4629215e-05
0.41900337 1.278415 0.15152581 0.0071335174
0.30822515 1.2861785 0.19736981 0.0039573573
0.14966881 1.1842668 0.23617601 0.0010860376
0.070886634 1.2327032 0.2340052 0.027135156
-0.020991564 1.2710803 0.26465774 0.0096135214
-0.13303956 1.1605458 0.29154381 0.019267
-0.17279685 1.175332 0.30025569 0.017056052
-0.49682999 1.2486234 0.3805089 0.004462216
-0.49242663 1.179925 0.36554408 0.021677427
-0.48525655 1.1008893 0.36947155 0.018603437
-0.49020481 1.0044475 0.37024564 0.0072623864
-0.48985726 0.92393398 0.3814373 0.0014161058
-0.49292451 0.69113421 0.36778957 0.0017692037
-0.49164146 0.65514016 0.36233377 0.00044492632
-0.49791726 0.53213876 0.36270285 0.021003392
-0.36149347 -0.40652162 0.32828382 0.0014770664
-0.30882314 -0.4057723 0.34378397 0.011478424
-0.45106125 -2.1631813 0.34813499 0.0011298582
-4 -1 0.25 0.027723312
-0.41282022 -2.2090659 0.3396275 0.02859319
-0.34015036 -2.2293315 0.31865168 0.012091693
1.9375 0.625 0.125 0.0079235658
-0.060072705 -0.53050643 0.27814466 0.026925325
-0.23999971 -2.2261913 0.3057223 0.028356984
-0.1235528 -2.2128282 0.27691293 0.0073238052
0.12801254 -0.36919919 0.2384429 0.0068331808
0.18268132 -0.38854384 0.22586864 0.0015848391
0.38302308 -0.4017565 0.1901961 0.020548053
0.58649397 -0.40178943 0.14899969 0.0045461878
0.70142257 -0.40376872 0.12442815 0.0068000704
0.7438156 -0.40653265 0.11616957 0.0073430985
0.78100133 -0.40623832 0.10868132 0.010874689
0.84342289 -0.40526012 0.096790791 0.0019829459
0.87091923 -0.40930009 0.091282129 0.00025912374
0.92260504 -0.40931797 0.081152081 0.0045396462
0.70757085 0.35514784 0.12442829 0.019953229
0.41603529 0.32757375 0.18432415 0.0045549423
0.33069229 0.48237896 0.19681644 0.0013477355
0.33301926 0.52988493 0.20862603 0.00097279251
0.26803842 0.73784119 0.2136308 0.00041900203
0.30822515 1.2861785 0.19736981 0.0065790713
0.17486453 1.2802434 0.21528101 0.0037937686
-0.19279206 1.1774415 0.30334899 0.016336031
-0.30714607 1.2394412 0.32749462 0.0077077635
-0.45056272 1.2763056 0.36060375 0.0069817565
-0.49818122 1.0667558 0.36454141 0.021496646
-0.48810461 1.013123 0.36232686 0.0025567599
-0.4952924 0.56297839 0.34924787 0.011844937
-0.55810547 -2.1361084 0.36853027 0.0003708601
-0.15849334 -2.2111204 0.28319818 0.015661813
-0.10306168 -2.2755804 0.28140286 0.028634675
0.14456987 -0.37888825 0.22743501 0.01836234
0.26339719 -0.42851579 0.21203348 0.001752995
0.28595415 -0.45544153 0.21077405 0.0015653819
0.33162457 -0.49303949 0.20161678 0.027499087
0.34505522 -0.49945042 0.19707488 0.0093319416
0.33562315 -0.45877171 0.19569063 0.02898448
0.38827395 -0.43202066 0.18933415 0.0015547425
0.60544276 -0.40018439 0.14884424 0.0036794581
0.73363858 -0.40855739 0.12724268 3.2808632e-05
0.7576828 -0.41062045 0.12147617 0.0052446686
0.8003996 -0.40276265 0.11357385 0.020942859
0.83814025 -0.40555155 0.1094566 0.0025895461
0.71698254 0.36822987 0.13439131 0.0038186498
0.76269531 0.01171875 0.052734375 0.0023225062
0.41145462 0.30891636 0.18596503 0.030669697
0.3398571 0.46608543 0.20138967 0.0069839023
0.30619109 0.55319846 0.20581812 0.010293324
0.3072561 0.61326152 0.20637926 0.0020504408
0.56990969 1.2561611 0.15964794 0.0019562393
0.27650201 0.63790727 0.20974576 0.00029516965
0.24394432 0.59614986 0.21758023 0.025020935
0.40050828 1.2826874 0.18721311 0.0029527694
-0.49740624 1.2554295 0.35606217 0.0044667013
-0.49377808 1.1989528 0.35778338 0.0099229738
-0.48965895 0.89033341 0.3500368 0.0035691261
-0.4909153 0.73502332 0.35034013 0.002801884
-0.49802911 0.53210044 0.36307731 0.013622325
-0.52469552 -1.7413903 0.3505941 0.015918873
-1.0400391 -2.1665039 -0.93798828 0.00066633895
-6.7673664 -8.6231356 28.176092 0.00048740953
-0.43798828 -2.2319336 0.33422852 2.7641654e-06
-0.35543931 -2.2115252 0.32448661 0.027101375
0.085495472 -0.36276728 0.25424787 0.0040896423
0.22593489 -0.3898944 0.22088432 0.020605501
0.9765625 -1.59375 1.15625 0.00090704858
0.31363586 -0.48903269 0.20895775 0.010873783
0.41812375 -0.40566564 0.18298906 0.0069791339
0.42912126 -0.40799946 0.18594146 0.0020417497
0.5336529 -0.4045234 0.15913911 0.027745441
0.54969454 -0.40935314 0.16834831 0.0081715286
0.59434325 -0.40819103 0.15922791 0.0055617467
0.60544276 -0.40018439 0.14884424 0.0036794581
0.63191223 -0.42057991 0.15352726 0.0016560517
0.71730888 -0.40899664 0.13649833 0.018591296
0.90365744 0.28260946 0.10572124 0.011102967
0.43427962 0.30529124 0.191459 0.022091419
0.41608167 0.32765034 0.18437654 0.00870388
0.33042312 0.5136019 0.20503902 0.0036159977
0.37241602 1.2793088 0.19443771 0.0053386986
0.2875315 1.2785786 0.23094088 0.0024722517
0.2064302 1.280143 0.22917221 0.0015475415
0.13596195 1.1711854 0.24643193 0.0095299669
-0.12039126 1.2120241 0.29542634 0.033559114
-0.17115223 1.1837318 0.28215033 0.0023678541
-0.5 9.5 3.75 0.017682739
-0.26429796 1.1605084 0.3124226 0.013909139
-0.32927346 1.2773567 0.32905272 0.0045286678
-0.36376846 -0.40643966 0.32817575 0.0025030077
-0.1510424 -0.40364474 0.30574197 0.0010182373
-0.51755524 -1.8547897 0.34208679 3.9160252e-05
-0.32213479 -2.2357111 0.31041878 0.027228907
-0.30289829 -2.2372177 0.30706644 0.02866789
0.22666723 -0.38877082 0.22053446 0.013242178
0.40345454 -0.39487147 0.20196652 0.0080440454
0.52489406 -0.40350923 0.18129793 0.0093667582
0.69465184 -0.4058069 0.14652896 0.00027591363
0.78833008 -0.39242554 0.13475037 0.0041243099
0.79133987 -0.40460408 0.13423347 0.00029849261
0.7234053 0.34436822 0.14719549 0.013756085
0.4050698 0.29723167 0.19954614 0.030359104
0.40558887 0.35932171 0.21425748 0.0093717054
0.37838084 0.3859241 0.20382237 0.0014217608
0.37118411 0.41774368 0.20621499 0.0021299906
0.3493166 0.48015809 0.20900026 0.0019259192
0.34575272 0.49830008 0.20834684 0.002687145
-2.0625 -0.65625 20 0.00081312284
0.4231739 1.2755933 0.19623375 0.0016468167
0.35800207 1.2810496 0.20764363 0.0027222596
-0.28572845 1.2396955 0.30170774 0.019137926
-0.49414062 1.2489624 0.34438324 0.005663462
-0.48947644 1.183217 0.34631395 0.0048592389
-0.50314331 1.1143036 0.35505676 0.01918713
-0.49004269 1.0809726 0.33887482 0.0090079755
-0.48421073 1.0628555 0.34128267 0.015917946
-0.49066067 0.75287676 0.32545662 0.0033754259
-0.49245751 0.61484742 0.33677411 0.0040025637
-0.50370413 0.53598762 0.35083354 0.016082801
-0.50541961 0.52578831 0.33815664 0.017979473
-0.31105685 -0.40863121 0.3154186 0.010342494
-0.29444361 -0.40355775 0.30889654 0.0010205507
-0.21495412 -0.6273337 0.2814694 0.016225051
-0.52413177 -1.6786728 0.33768463 0.00058503076
-0.52916253 -1.7169639 0.334941 0.0084880441
-0.51182532 -2.1451004 0.33510548 0.023573861
-4 -1 1.5 0.0059414394
-0.42458344 -2.218132 0.31577301 0.0050578192
-0.34332764 -2.2218297 0.30745542 0.017055321
-8 0 0.5 0.00057299808
-0.29192314 -2.2227271 0.3018856 0.032448761
-0.17260742 -1.8725586 0.48828125 0.0009614788
-0.32617188 -3.65625 1.28125 0.0081469864
0.20344365 -0.39040333 0.22925413 0.0023724176
0.25933501 -0.42128474 0.22261931 0.0016181469
0.35181007 -0.47601265 0.21223783 0.022661559
0 0.75 -0.375 0.00027844682
0.47768164 -0.40122676 0.1926533 0.020037755
0.4908855 -0.40679899 0.19162104 0.0054309778
0.52489406 -0.40350923 0.18129793 0.0076364502
0.58829153 -0.40559629 0.17567143 0.0084124915
0.59549427 -0.40720737 0.17110994 0.0012351274
0.66337585 -0.40664589 0.16462064 0.001972869
0.6833992 -0.40755844 0.16006279 0.00013805553
0.7176199 -0.40625677 0.15546098 0.00031958148
0.77495599 -0.40964788 0.14526929 0.01443252
0.875 -0.390625 0.09375 0.00059930608
0.89709425 0.28739738 0.12809445 0.0085317641
0.7185626 0.37422848 0.1596818 0.00028815866
0.39107528 0.25844163 0.22083765 0.02360227
0.38741446 0.41075706 0.20815472 0.0023617186
0.35870844 0.44317377 0.20772487 0.0089437813
0.32586411 0.56921577 0.21486379 0.0014689006
0.3267405 0.59633851 0.2168749 0.0033749416
2.9785156 22.443359 46.397705 0.0073236078
0.42314339 1.2783356 0.20740497 0.0028536394
0.34416652 1.2774557 0.20700732 0.0040851012
0.28785729 1.2779177 0.2329053 0.0033874996
0.23493791 1.2826005 0.21201658 0.0035919398
-0.30339128 1.2294964 0.31281641 0.01975048
-0.36684614 1.2660563 0.31900877 0.02912385
-0.4997884 1.1687381 0.34456074 0.016700167
-0.48910743 1.0604901 0.3383944 0.023928739
-0.36815828 -0.40407997 0.30731988 0.0012945794
-0.51668549 -1.8431206 0.33090591 0.00046765804
-0.40270096 -2.229212 0.30845439 0.023084924
-0.23553589 -2.2311759 0.29001105 0.025790073
-0.21158719 -2.2332325 0.28660229 0.0089708567
-0.12624931 -2.2424517 0.26794481 6.6570938e-05
0.31629491 -0.46702707 0.21678939 0.033623934
0.38576931 -0.42365903 0.20577514 0.017693158
0.52366209 -0.40196899 0.18387711 0.0032340847
0.66337681 -0.40664601 0.16462064 0.0010595471
0.74680305 -0.40886736 0.15690392 0.0068934113
0.80112076 -0.40359521 0.14396334 0.0013244003
0.75 0.0625 4 0.0057025105
0.91935349 0.19146729 0.12458992 0.0022639968
0.41867274 0.33780617 0.20319715 0.01382
0.35891348 0.44276285 0.20801026 0.0036692135
0.3515054 0.53665781 0.21456188 0.00026762858
0.34199977 0.55717826 0.2155848 0.00075611845
0.3267405 0.59633851 0.2168749 0.0033749416
0.6065802 1.2807941 0.18020305 0.016479477
0.39257598 1.280248 0.20218997 0.0015117712
0.26359069 1.2764951 0.22693571 0.0066622943
-0.16915894 1.1674902 0.28529835 0.011141397
-0.39980638 1.2772315 0.33495921 0.017845608
-0.47969365 1.2811769 0.33464539 0.009367004
-0.78274345 -148.23602 -99.595566 0.01916717
-0.48736131 1.0083373 0.33109412 0.014170282
-0.49375266 0.98320937 0.33230484 0.011052817
-0.49122107 0.96039248 0.33593869 0.00078507513
-0.49230087 0.91608524 0.33259225 0.0026425198
-0.49313819 0.55713212 0.33075142 0.015357729
-0.49049139 0.52190733 0.33278394 0.019858461
-0.29430425 -0.40363273 0.30936286 0.0036748052
-0.5189023 -2.0119019 0.32545471 5.3197145e-06
-0.36259627 -2.222193 0.30406508 0.015926726
-0.34332764 -2.2218297 0.30745542 0.014120929
-0.32716203 -2.2234182 0.28226414 0.015421703
0.39856017 -0.40251517 0.2055887 0.0035654791
0.54785776 -0.40448308 0.18959141 0.006004177
0.59298241 -0.40405044 0.18304497 0.0083056241
0.59561539 -0.40730247 0.17035994 0.0013339631
0.63987732 -0.39335835 0.17660415 0.0067051686
4 0 2 0.00015778095
0.90048647 0.32469201 0.14683776 0.013610214
0.88404894 0.34288311 0.14903128 0.0035232417
0.87309253 0.36210847 0.15044719 0.0060584955
0.85951471 0.38427043 0.15224326 0.006256219
1 -0.25 -4 0.003509216
0.51952505 0.29958534 0.19143844 0.0057438798
0.42864615 0.30121934 0.20737922 0.018328127
0.40872431 0.36041462 0.2228508 0.0030788854
0 1 0.25 0.00016798824
0.24311526 0.63182777 0.22892028 0.00058140233
0.29491258 1.275556 0.23048303 0.0048852004
0.23622501 1.2859938 0.23032103 0.0048979223
0.114362 1.2213153 0.25086936 0.023691446
-0.13303956 1.1605458 0.29154381 0.028292917
-0.21451777 1.1864107 0.29218212 0.0040029846
-0.39387691 1.2655337 0.31637278 0.010839265
-0.4604075 1.2770764 0.33011258 0.013094347
-0.49861011 1.2570901 0.3286809 0.024648063
-0.49240518 1.1493125 0.3326374 0.022441413
-0.49329245 1.096002 0.32633454 0.013469696
-0.49128041 1.0550441 0.33042634 0.024927728
-0.49318695 0.67368674 0.33005124 0.0049274266
-0.26062346 -0.40357941 0.28790104 0.007586889
-0.52981424 -1.6851764 0.32158536 0.015085854
-4 -1 1.5 0.0054462478
-0.44937515 -2.1674533 0.33631229 7.1190298e-06
-0.40749002 -2.2397361 0.29831445 0.033670343
-0.37821865 -2.2383363 0.2910589 0.018217195
-0.36692846 -2.222028 0.28183734 0.015066959
-0.30472684 -2.2476144 0.30723572 0.0091811195
-0.13457918 -2.2800951 0.2763482 0.034121983
0.44077241 -0.41106436 0.21126044 0.0054022223
0.55932236 -0.4093318 0.19634287 0.004392758
0.65047479 -0.40428734 0.18579364 0.015410408
0.82897234 -0.40401316 0.16339779 0.0060696751
0 -1 -2 0.0026872121
0.89608979 0.28339863 0.15689564 0.0061735474
0.90258586 0.302701 0.15611142 0.0087234825
0.71934104 0.34825632 0.17459366 0.0088170394
0.71905911 0.39595887 0.17802626 0.0061472654
0 4 0.375 3.7066638e-05
0.43416214 0.58576059 0.21208964 0.0011047646
2.216862 -163.20844 0.30502552 8.2794577e-05
0.34981167 0.658539 0.22358733 0.015207831
0.6167286 1.2650137 0.19195974 0.018663041
0.26957422 0.7234984 0.23137653 0.00033719465
0.32926106 1.2828754 0.22632378 0.00071972981
0.33890104 1.2784956 0.22314334 0.00065432489
0.10926294 1.2185062 0.25106105 0.018129636
-0.22421014 1.1639278 0.29081452 0.0040952377
-0.49539614 1.2192335 0.32487679 0.0088311173
-0.49351227 0.90026426 0.32400846 0.0052740276
-0.49042106 0.66922331 0.32112575 0.0026525557
-0.49313825 0.55713201 0.33075151 0.018350981
-0.34539175 -0.40619406 0.29788035 0.0040569603
-0.52306241 -2.1331058 0.31454882 0.029586144
-0.33969396 -2.225831 0.29565793 0.016964622
-0.2222081 -2.2330434 0.28419402 0.014987145
-0.10490355 -2.2759745 0.26210645 0.027900375
0.34866196 -0.50581616 0.22656508 0.013500869
0.74285889 -0.94122314 0.17995453 0.00053755194
0.76147163 -0.90584683 0.177991 0.013677392
0.50065136 -0.40512109 0.20266622 0.0060179681
0.66791105 -0.40531978 0.18873447 0.011179395
0.66791105 -0.40531978 0.18873447 0.011179395
0.69688964 -0.41117197 0.18695648 0.0068333
0.86966586 -0.40508097 0.16718316 0.00026504323
0.89155912 0.33407545 0.16638634 0.0091301501
0.87486839 0.35635185 0.16771281 0.006884113
0.39184386 0.25486332 0.22178018 0.0066856816
0.44317263 0.31171179 0.21440829 0.0004767552
0.45798802 0.47424459 0.2138955 0.00087230653
0.43029296 1.2637916 0.21742034 0.014188718
0.40301299 1.2857407 0.21759808 0.0064859614
0.38873959 1.2754157 0.22383714 0.0038500056
0.12235612 1.2127789 0.2521781 0.0033731945
-0.1521889 1.1925925 0.28111574 0.031428777
-0.25007522 1.2099962 0.29659936 0.022318207
-0.31871533 1.2796173 0.29924974 0.029235497
-0.49008548 0.88725781 0.31843901 0.0035098121
-0.4901526 0.74971914 0.31676209 0.0053871199
-0.38131961 -0.40802762 0.30451655 0.0010208189
-0.2131958 -0.4040978 0.27626979 0.0021735914
-0.52685547 -1.6990967 0.31555176 3.6928803e-05
-0.52347732 -1.8538074 0.30945545 0.0089005828
-0.5081892 -2.1496475 0.30834234 0.018341355
0.3125 -2.0625 6.5 0.017878052
-0.33626583 -2.2328448 0.29278922 0.033396445
-0.29380906 -2.252465 0.29674435 0.0074847117
0.21525824 -0.36629355 0.23881859 0.0040689036
0.33428374 -0.48197415 0.21982399 0.01808022
0.35359743 -0.47822425 0.2231445 0.02982495
0.38349608 -0.41033787 0.21815026 0.015601601
0.42899835 -0.40519792 0.22710282 0.0070479997
0.47920418 -0.40036893 0.21633726 0.00072630867
0.69696665 -0.41121304 0.18682528 0.00017808378
0.74825144 -0.40458798 0.18832707 0.0029309243
0.77024841 -0.40736389 0.16330624 0.011924021
0.79623508 -0.42907715 0.21022415 0.0024318993
0.86661577 -0.40801683 0.17644 0.0001167804
0 -1 -0.5 0.0015618578
-2 2 0.75 0.0071466975
0.85260773 0.38458443 0.17951322 0.0025027543
0.5050993 0.29344749 0.22087765 0.00029204786
0.4278495 0.34607381 0.22074556 0.00024618953
0 0 0.5 0.00035953522
0.47694588 0.47322905 0.21645582 0.00020583719
0.46278083 0.48744643 0.21789333 0.00076643378
0.45202327 0.59378475 0.21918143 0.00064215809
0.42796707 0.60696906 0.22123197 0.000568524
0.60492444 1.2750583 0.20543003 0.0031497031
0 -0.25 -0.25 0.00031940266
0.42371368 1.2831149 0.23382315 0.0031695068
0.31666231 1.2795628 0.23316577 0.0085899457
0.067322284 1.2195497 0.25229526 0.023636259
-0.17196703 1.1894932 0.27924508 0.0048248582
-0.38117096 1.275445 0.27400297 0.015613511
-0.47582078 1.2851241 0.30899495 0.0098006502
-0.49054751 1.0528642 0.31429952 0.0055189654
-0.49523535 0.64977515 0.30137882 0.0076076649
-0.49185643 0.53677315 0.31864402 0.01870713
-0.34549856 -0.40627977 0.30048323 0.0031487346
-0.04296875 -0.07421875 0.1796875 3.637746e-05
-0.04296875 -0.07421875 0.1796875 3.637746e-05
-0.4206987 -2.2343762 0.29665989 0.02471935
-0.35683441 -2.2241745 0.2823391 0.004067231
-0.32716203 -2.2234182 0.28226414 0.015592221
0 0 1 0.0035106167
0.15009627 -0.36837494 0.25365674 0.025393814
0.1983624 -0.34767401 0.24128705 0.023837656
0.28740668 -0.46237063 0.22145441 0.00034383312
0.31848502 -0.48675799 0.23169732 0.010339551
0.34846953 -0.50079995 0.23248708 0.021394677
0.37265942 -0.50446844 0.22854196 0.017510869
0.76967502 -0.95622087 0.19307268 0.0084368624
0 -16 32 0.00049417838
0.41278136 -0.40739202 0.22324708 0.0034464672
0.52074552 -0.40544426 0.21664914 0.0014337413
0.57473993 -0.40528393 0.21083054 0.00089781359
0.68971491 -0.40388918 0.20053411 0.0024834163
0.69688964 -0.41117197 0.18695648 0.0013943426
0.8390851 -0.40564108 0.19779587 0.0049744472
1 2 0.28125 0.0058409236
0.89168167 0.34287524 0.18503207 0.0096154287
1 1 0.125 0.0095190555
0.72262627 0.36636209 0.20256931 0.021856576
0.34495872 0.65785849 0.2304281 0.013151038
0.60364008 1.2756827 0.20798469 0.0027723648
0.25054482 0.59344178 0.24135938 0.018445916
0.27301759 0.75372171 0.24433953 0.006098479
0.24569225 1.2808886 0.24448884 0.010374367
0.060340166 1.195889 0.25851399 0.00027130172
-0.11123382 1.2050846 0.27349475 0.035878308
-0.21423432 1.1948773 0.27555084 0.028335474
-0.38117096 1.275445 0.27400297 0.015449822
-0.49506688 1.2739282 0.30723548 0.004755415
-0.49005198 1.1499648 0.30632263 0.01839444
-0.49366868 0.8398633 0.30638766 0.013893522
-0.49646193 0.67212903 0.30969048 0.0045364201
0 -0.5 -0.5 0.015149325
-0.49433714 0.57205045 0.30586231 0.021780483
-0.1598101 -0.4528887 0.27557445 0.0045330748
-0.04296875 -0.07421875 0.1796875 3.637746e-05
-0.36987585 -2.2228343 0.2747727 0.017399505
-0.3267113 -2.2222407 0.28225291 0.029830791
-0.21374093 -2.272615 0.27391151 0.024631739
-11.682373 2.119873 0.44238281 0.0053250976
-0.15746781 -2.1819272 0.26895377 0.025327519
-0.10947958 -2.2804916 0.27084798 0.030067623
0.38356084 -0.41193342 0.22239304 0.012367509
0.48757887 -0.40486264 0.23658073 0.0021676384
0.50614643 -0.40366787 0.22190422 0.0035081692
0.58687639 -0.40314209 0.21724749 0.0063572675
0.83970237 -0.40543509 0.19787598 0.00023976341
0.89242268 -0.40869617 0.19284487 0.0010762401
0.8883701 0.29370332 0.19456464 0.0089668445
0.85511327 0.38539839 0.19729984 0.0078531131
0.53901672 0.62477112 0.22202301 1.4692545e-05
0.60355473 1.2699366 0.22608709 0.0047414228
0.42371368 1.2831149 0.23382315 0.0063488036
0.40843773 1.2861016 0.23424721 0.0031999648
0.3676948 1.2806106 0.24221173 0.0056020804
0.091152608 1.1684499 0.26805115 0.020605166
-0.22421014 1.1639278 0.29081452 0.019850932
-0.34048796 1.2790082 0.29113123 0.015010584
-0.48992214 1.079525 0.30969381 0.023701504
-0.4961307 0.99532306 0.30139041 0.0048024915
-0.49070638 0.70727706 0.28532219 0.0038502589
-0.30957007 -0.40854675 0.27042425 0.00396071
-0.5266583 -1.6603856 0.29214191 0.0008103326
-0.52547467 -1.7079916 0.2920475 0.00016208738
-0.49041748 -1.8671875 0.28506088 1.9982457e-05
-0.49969196 -2.1823921 0.34840393 0.0072791241
-0.45811462 -2.1539001 0.28683615 8.8959932e-05
-0.36276627 -2.2229462 0.28378201 0.0069768578
-0.24435806 -2.2726278 0.27301836 0.0034576245
-0.19374612 -2.250798 0.26280901 0.0032815784
-0.15746781 -2.1819272 0.26895377 0.025327519
0 0 1 0.024747349
0.37991941 -0.51017308 0.23695505 0.00034965947
0.3835316 -0.42523545 0.23457637 0.01115644
0.41674036 -0.40234292 0.23537757 0.0019775443
0.52550089 -0.40730464 0.22941878 0.001258079
0.51737368 -0.40655354 0.19868106 0.001154948
0.57060909 -0.41006184 0.2257604 0.0010620058
0.63166261 -0.40823436 0.22935832 0.010567669
0.56585693 -0.44546509 0.23116684 0.0025707744
0.69428492 -0.40685093 0.21917462 0.0041068643
0.80311584 -0.39751434 0.21033955 0.00043085217
0.88387823 -0.41098833 0.205176 0.0053156912
0.89832592 -0.40823436 0.20426467 0.011205174
0.5 0.5 0.1875 0.0081702732
0.8813976 0.35386908 0.20678157 0.014057532
0.38957447 0.24541119 0.23632017 0.019862562
0.58801079 0.4996829 0.2245245 0.0026701167
0.57140017 0.53020525 0.22760165 0.0013346747
0.5681076 0.53804779 0.22690582 0.0018116049
0.19333893 -1.0454888 -0.083951682 0.00018170476
0.55557251 0.58564949 0.22860718 0.00032162294
0.27407837 1.2849882 0.24504209 0.014082901
0.16851544 1.2715447 0.26056504 0.0026192516
0.078079611 1.2450356 0.26232818 0.02333685
-0.27359563 1.1645486 0.28652358 0.0057966486
-0.45372033 1.2736372 0.27918738 0.015427314
-0.49029171 1.0002804 0.2624591 0.011621289
-0.49041748 -1.8671875 0.28506088 1.9982457e-05
-0.49035645 -1.8673096 0.28505707 1.9982457e-05
-0.48476017 -2.1617382 0.28401333 0.015405189
-0.4560318 -2.1669922 0.28193188 2.2988766e-05
-27.858992 -0.18086886 0.56671816 0.0010127835
-0.36938387 -2.2215834 0.2786569 0.0094472095
-0.31545955 -2.2233753 0.26150894 0.0065134242
-0.22569001 -2.2760603 0.26943034 0.0046660602
-0.1856308 -2.233386 0.28058004 0.024387814
-0.1297226 -2.2729053 0.25640348 0.02894824
0.763062 -0.93582535 0.21894836 0.0044766441
0.50775337 -0.40837452 0.23436081 0.0011171848
0.54244804 -0.40434432 0.22056961 0.0016882122
0.67340469 -0.40771484 0.23322868 0.0061927661
0.67456293 -0.40645003 0.22458094 0.0013626628
0.75067425 -0.4087162 0.21272087 0.00084798038
0.82264996 -0.40378618 0.21935987 0.00042824075
0.85218978 -0.40862805 0.2242564 0.0003519468
0.92434692 0.2697525 0.21359015 0.00039604306
0.65625 0.47070312 0.22192383 0.017873362
0.71303517 0.34832406 0.22482687 0.0077123716
0.72700953 0.37074804 0.22680211 0.0039022528
0.72158867 0.38815117 0.22851038 0.0026890822
0.48077631 0.28791249 0.23581195 0.00027895346
0.58971953 0.46004188 0.23171347 0.0089673027
0.58984113 0.4829306 0.2319082 0.0089169033
0.5 15 0 0.00016012043
0.81770205 1.2714012 0.22125085 0.012417845
0.35880625 0.66235888 0.22811306 0.00046291947
0.3423022 0.65331614 0.25761861 0.012327269
0.25802493 0.59928739 0.25258881 0.028858997
0.31294084 1.2844321 0.24562627 0.0084327906
0.27819729 1.285264 0.23746718 0.0035029165
0.22190282 1.2843599 0.26106077 0.00039760023
-0.12315083 1.2357246 0.26843584 0.033793174
-0.32616472 1.2795706 0.28344348 0.0063126869
-0.4921999 1.2222733 0.29004264 0.012044396
-0.48785025 1.1160471 0.28270423 0.0019109547
-0.49834174 1.05686 0.29183328 0.026553243
-0.49366999 0.5186727 0.29397601 0.020679828
-0.38896686 -0.41025499 0.27410451 0.0022399276
-0.20141554 -0.40316787 0.26042283 0.00064139441
-0.43961126 -2.1788201 0.2766237 0.034659058
-27.858992 -0.18086886 0.56671816 6.3069165e-06
-0.12932414 -2.1980212 0.26882577 0.0014124438
0.10962674 -0.36501962 0.25628293 0.0059744194
0.28790522 -0.4622016 0.21943915 0.014454562
0.33460903 -0.48180747 0.24455857 0.016600586
0.34592634 -0.48991805 0.25356248 0.022111416
0.76683927 -0.93404102 0.22752923 0.0057808049
0.38147011 -0.40338162 0.24283198 0.0097742677
0.42826426 -0.41555613 0.24199218 0.019937798
0.48949528 -0.40373969 0.2376945 0.0041657202
0.702775 -0.40759969 0.22351694 0.019296885
0.78104258 -0.40868354 0.22794449 0.012508221
0.81250334 -0.40291691 0.22815895 0.00085123628
-12 -0.5 -2.3164062 0.00038970634
0.82419252 0.37583655 0.22656775 0.00068534538
0.60602963 0.44868731 0.23722631 0.0027424283
0.60688388 0.4760747 0.23721519 0.014105015
0.60311794 0.5097115 0.24526882 0.0051905476
0.57561588 0.52933359 0.23291397 0.0013535991
0.57710266 0.55216312 0.23765564 8.0987811e-06
-64 4 2 0.00089963526
0.73536456 1.1767741 0.23315951 0.025832713
0.71570587 1.1748772 0.22945023 0.0020828135
0.71004486 1.212471 0.23165894 0.0068789907
0.36081934 0.66620755 0.24934494 0.00086048618
0.42633843 1.2718529 0.24302095 0.024649128
-0.17567408 1.1643759 0.27225965 0.014455497
-0.49412203 1.1413821 0.29059395 0.0056856871
-0.493999 1.0311852 0.28631961 0.004286401
-0.4920972 0.91385841 0.2870239 0.001109004
-0.38857329 -0.41035467 0.27459246 0.0014330521
-0.21321546 -0.62165159 0.27118355 0.0099517815
-0.50805664 -1.6921997 0.26226807 1.1995435e-05
-0.50799561 -1.6922607 0.26202393 1.1995435e-05
-0.515625 -2.1198316 0.27418518 3.1661242e-05
-0.47502455 -2.1552672 0.26858428 0.022860684
-2.625 -0.15625 1.5625 4.3723732e-05
-0.30218786 -2.2425463 0.26717257 0.035732783
-0.19374612 -2.250798 0.26280901 0.024157278
0.026956916 -0.40882921 0.25221276 0.0011994429
0.17928636 -0.36341584 0.24240731 0.016948793
0.23390579 -0.38263857 0.25725412 0.00051283836
0.24827313 -0.39863575 0.25330567 0.00021351129
0.28289354 -0.45011434 0.25212717 0.0024915934
0.34317353 -0.46165419 0.25065631 0.018266834
0.34317356 -0.46165419 0.25065634 0.018266834
0.5082922 -0.40788162 0.25483924 0.00075146556
0.51960325 -0.40362877 0.24338162 0.00069802999
0.52748883 -0.40578222 0.20606011 0.012300674
0.67021179 -0.40846586 0.24023509 0.0006740652
8.2149048 -2.6519623 -0.0061349869 0.00069737062
0.8385067 0.37410736 0.23609626 0.0012305565
0.72657537 0.34751606 0.23944914 0.0038591772
0.7130481 0.36146569 0.24026206 0.016835772
0.72158867 0.38815117 0.22851038 0.0045953467
0.484211 0.28416544 0.25079685 0.00090265647
0.60804844 0.45664787 0.24354224 0.0021679774
0.60662174 0.50187254 0.24364614 0.0014494695
0 1 0 0.0011319891
8.2158203 3.6693115 0.63499451 0.00027678162
0 0 0 0.001442913
0.71078491 1.2312317 0.24254417 8.3073974e-06
2.75 1.75 5.125 1.0289252e-05
0.58032191 1.2603004 0.24542591 0.02674856
0.27800894 0.76432943 0.25712264 0.0013898686
0.32566714 1.2769418 0.24832606 0.0078298822
0.13668559 1.1660151 0.25772288 0.010511525
-0.098967195 1.1733845 0.25101712 0.031631194
-0.10772538 1.1938268 0.26167482 0.012470007
-0.17652479 1.1641418 0.27215424 0.011386938
-0.32089448 1.2713842 0.27581859 0.007321313
-0.37246501 1.2764767 0.26451886 0.02056447
-0.47537708 1.2814847 0.27891302 0.0029984675
-0.48996758 1.0035934 0.26602966 0.0035315678
-0.49051818 0.70215827 0.27862453 0.0011760406
-0.491927 0.62039387 0.28572351 0.0087659769
-0.37927318 -0.40466133 0.25897712 0.0021896362
-0.22029614 -0.40035009 0.26414311 0.0014753863
-0.21321546 -0.62165159 0.27118355 0.021767765
-0.50799561 -1.6922607 0.26202393 1.1995435e-05
-0.52552128 -1.7265098 0.26989889 0.0022680536
-0.50668114 -2.1670992 0.27992311 0.035118736
-16 -4 0 4.2580068e-06
-0.38565266 -2.2355995 0.26633844 0.019597799
-0.31988418 -2.2240641 0.26517713 0.01956442
-0.30119482 -2.2316329 0.26390076 0.021715391
0.32598341 -0.47253054 0.26161897 0.020700887
0.48578191 -0.4115001 0.2494905 0.0056470074
0.58117294 -0.39689779 0.24823487 0.0010658354
0.65465021 -0.40700948 0.24706633 0.01020553
0.69060588 -0.40816775 0.24630645 0.013244972
0.71495867 -0.40811753 0.2423439 0.0025005937
0.8272171 -0.40376091 0.23018289 0.00023352355
0.88882542 -0.41226006 0.24200135 0.0037363246
0.71978539 0.40040681 0.24727461 0.028637722
0.71978539 0.40040681 0.24727461 0.028637722
3.2817662 -1.8896726 -2.5676975 0.0001163967
0.89641571 1.2805254 0.25267625 5.3778291e-05
0.87915897 1.2792844 0.21968174 1.8525869e-05
0.84682655 1.2831345 0.24588823 0.0021795779
0.71748543 1.1677436 0.24993134 0.00056004524
0.71015 -2.8406 0 0.00015709549
0.70408648 1.2076848 0.2488091 0.006369859
0.41824198 1.2851697 0.25787055 0.013067327
0.31210947 1.2840601 0.24473774 0.002915848
0.31084251 1.284438 0.24529392 0.0029043704
0.24658012 1.2785923 0.26047873 0.0062324144
-0.16694903 1.1997459 0.26673827 0.018706955
-0.49028671 0.78026772 0.26538563 0.0023695827
-0.4999904 0.54207826 0.28035113 0.016806215
-0.35382992 -0.41148385 0.2683785 0.0049331933
-0.27683812 -0.40446329 0.27936056 0.0057118535
-0.51964808 -1.8511717 0.27078247 3.4790486e-05
-0.51301682 -2.1452808 0.26252735 0.014496379
-0.49092865 -2.1547165 0.26689732 0.011689648
-0.47579908 -2.1551244 0.26231122 0.012597974
-12.75 16.8125 -38.71875 0.015249584
0.2425518 -0.39178467 0.26022714 0.00019875914
0.41929358 -0.40795422 0.26139086 0.0082850717
0.49292254 -0.40843713 0.26058316 0.00283961
0.56869173 -0.4127835 0.25453877 0.0029469803
0.57437372 -0.41034448 0.25521791 0.0024288483
0.75059175 -0.41098812 0.25205904 0.0030737035
8 0 5 0.0017589778
0.83335948 0.36985874 0.25360239 0.0066918842
0.70310783 0.35289574 0.22511673 0.0095749423
0.72004741 0.38382971 0.25543708 0.0060011074
0.94546962 1.277586 0.2542569 0.010733321
6.8795571 1.5131893 11.807336 0.0004174225
-8.9189854 -0.28947306 -0.38514137 2.1699816e-05
0.71291351 1.167654 0.26459885 0.00078854337
0.33889371 0.65280187 0.25971758 0.0077802315
0.24895334 0.61604548 0.23669338 0.017023131
0.39947701 1.2748926 0.24844529 0.0099239908
0.04624632 1.1576288 0.26419613 0.026281886
-0.261536 1.1742331 0.2723245 0.015412439
-0.48984545 0.93338257 0.26532319 0.0028440505
-0.49831277 0.5124377 0.27100664 0.029910699
-0.30531931 -0.40371114 0.24826351 0.011949435
-0.21357529 -0.64350218 0.27184233 0.0056340508
0.625 -10.5 0 0.0097053982
-0.40062594 -2.2240403 0.25682437 0.017123714
0 -0.71875 2 0.013013326
-0.06708765 -0.42520392 0.016296566 0.016362246
-0.21835253 -2.2832413 0.2566576 0.017910995
-0.20763426 -2.2858498 0.2558437 0.034202971
0.15827012 -0.35515603 0.25730562 0.011521399
0.4017241 -0.40706098 0.26230276 0.02041468
0.52544379 -0.4106603 0.25596422 0.0019207075
0.63626981 -0.40859771 0.26568294 0.0037526526
2 2 -2 0.0018264279
0.71495867 -0.40811753 0.2423439 0.0010945685
0.79086435 -0.40538347 0.26045027 0.015339226
0.83207703 -0.42533875 0.28479004 0.00071696937
0.88508582 0.2951107 0.2621116 0.011455908
0.71997499 0.36236894 0.25929415 0.0056468807
-128 2 0.25 0.0035689659
0.89603233 1.277658 0.26961184 0.00010142103
-4 -1 -36 3.5431236e-05
0.83303833 1.2772936 0.25879288 0.0028765425
